ply
format ascii 1.0
element vertex 376
property float x
property float y
property float z
property float nx
property float ny
property float nz
end_header
-0.708987236022949219 2.23397922515869141 -1.51408028602600098 -0.105127349495887756 -0.898621976375579834 0.425942271947860718
-0.665642321109771729 2.23936843872070312 -1.49293982982635498 -0.084680117666721344 -0.915914416313171387 0.392339199781417847
-0.740500211715698242 2.26035189628601074 -1.45411312580108643 -0.0755726248025894165 -0.948859870433807373 0.306518673896789551
-0.908409237861633301 2.25185251235961914 -1.41776537895202637 0.024783749133348465 -0.866697430610656738 -0.498218178749084473
-0.86437523365020752 2.22559070587158203 -1.38089835643768311 0.0300420559942722321 -0.754195630550384521 -0.655962228775024414
-0.887322604656219482 2.18754839897155762 -1.34230351448059082 0.0402622707188129425 -0.691387534141540527 -0.721361398696899414
-0.849754154682159424 2.17367815971374512 -1.31370532512664795 0.297458231449127197 -0.530647575855255127 -0.793682396411895752
-0.793420493602752686 2.19124293327331543 -1.33902060985565186 0.0572956353425979614 -0.67574387788772583 -0.734906435012817383
-0.747781693935394287 2.1748809814453125 -1.31864285469055176 0.100716002285480499 -0.657167017459869385 -0.746985793113708496
-0.701322972774505615 2.1719510555267334 -1.29383599758148193 -0.21340470016002655 -0.413240432739257812 -0.885263144969940186
-0.733507931232452393 2.20930385589599609 -1.34923148155212402 0.114491693675518036 -0.690766096115112305 -0.713956475257873535
-0.788332998752593994 2.24439501762390137 -1.39876759052276611 0.0676118656992912292 -0.806358158588409424 -0.587550103664398193
-0.69971996545791626 2.2494196891784668 -1.38944840431213379 0.147038981318473816 -0.797636449337005615 -0.584940731525421143
-0.636800944805145264 2.25238895416259766 -1.37742114067077637 0.139739274978637695 -0.864547431468963623 -0.482732504606246948
-0.691660046577453613 2.25639891624450684 -1.4528118371963501 -0.0915547162294387817 -0.950552105903625488 0.296763300895690918
-0.521607398986816406 2.25270652770996094 -1.34433221817016602 0.0109289037063717842 -0.997287333011627197 -0.0727910697460174561
-0.571338534355163574 2.25291156768798828 -1.35855865478515625 0.0991948246955871582 -0.946602404117584229 -0.306764155626296997
-0.595506727695465088 2.21065831184387207 -1.31283295154571533 0.293422907590866089 -0.695303916931152344 -0.656091034412384033
-0.459580451250076294 2.25061893463134766 -1.29356563091278076 0.199036151170730591 -0.929479897022247314 -0.310566842555999756
-0.445765942335128784 2.22469115257263184 -1.23582339286804199 0.429768353700637817 -0.75605165958404541 -0.493644654750823975
-0.556314051151275635 2.19530892372131348 -1.277427077293396 0.363960832357406616 -0.645592629909515381 -0.671373665332794189
-0.51726686954498291 2.23408865928649902 -1.29879021644592285 0.344283223152160645 -0.739577770233154297 -0.578354358673095703
-0.63387221097946167 2.18253803253173828 -1.29947960376739502 0.259706854820251465 -0.667447209358215332 -0.697901546955108643
-0.623088359832763672 2.14308261871337891 -1.26141500473022461 0.264355748891830444 -0.588947296142578125 -0.763712763786315918
-0.755657792091369629 2.11342430114746094 -1.26803505420684814 0.092311270534992218 -0.629901885986328125 -0.771169424057006836
-0.715920031070709229 2.09778022766113281 -1.25019407272338867 0.101333685219287872 -0.62029033899307251 -0.777799069881439209
-0.812874376773834229 2.10942888259887695 -1.27125239372253418 0.0831290930509567261 -0.630753695964813232 -0.771517574787139893
-0.859078824520111084 2.11130666732788086 -1.2774510383605957 0.0701886564493179321 -0.62345731258392334 -0.778700530529022217
-0.884785056114196777 2.1425020694732666 -1.30396819114685059 0.0489886254072189331 -0.6127205491065979 -0.788779854774475098
-0.928228676319122314 2.16836142539978027 -1.32730507850646973 0.0152252279222011566 -0.642928123474121094 -0.765775203704833984
-0.960870742797851562 2.20167446136474609 -1.35720646381378174 -0.0261837579309940338 -0.685885310173034668 -0.72723841667175293
-0.960166215896606445 2.23257112503051758 -1.39154565334320068 0.0153313763439655304 -0.796602129936218262 -0.604309499263763428
-0.828491389751434326 2.26413297653198242 -1.46563458442687988 -0.0585121400654315948 -0.986216425895690918 0.154769241809844971
-0.888788580894470215 2.2526848316192627 -1.52223706245422363 -0.123253017663955688 -0.923215091228485107 0.363981634378433228
-0.936487734317779541 2.24351882934570312 -1.55841326713562012 -0.097089618444442749 -0.910696089267730713 0.40150490403175354
-0.982059121131896973 2.2562251091003418 -1.53047096729278564 -0.00732666207477450371 -0.950052917003631592 0.312002807855606079
-1.03501296043395996 2.2508852481842041 -1.42404711246490479 0.024432700127363205 -0.889216125011444092 -0.456834524869918823
-1.04590320587158203 2.26140737533569336 -1.47162389755249023 0.13479381799697876 -0.987183928489685059 -0.0854314640164375305
-1.08720028400421143 2.2469940185546875 -1.42171740531921387 0.0599999837577342987 -0.897426605224609375 -0.437064677476882935
-1.13447368144989014 2.24470043182373047 -1.43175017833709717 0.136164069175720215 -0.989056885242462158 -0.0567963831126689911
-1.09603512287139893 2.25262832641601562 -1.46908056735992432 0.172771543264389038 -0.984656572341918945 0.0245228931307792664
-1.08189046382904053 2.24530959129333496 -1.54122328758239746 0.140502244234085083 -0.958639442920684814 0.247526809573173523
-1.02663064002990723 2.24873661994934082 -1.54996645450592041 0.0480081215500831604 -0.952570259571075439 0.300508081912994385
-0.972178220748901367 2.26700091361999512 -1.48623859882354736 0.0334527641534805298 -0.99711000919342041 0.0682094618678092957
-1.19313085079193115 2.23824858665466309 -1.42085778713226318 0.0580813325941562653 -0.993503749370574951 -0.0978615283966064453
-1.25128448009490967 2.21627593040466309 -1.30148422718048096 -0.404752403497695923 -0.775632798671722412 -0.484323501586914062
-1.30307745933532715 2.24149465560913086 -1.31405353546142578 -0.179986029863357544 -0.98364412784576416 -0.00702255498617887497
-1.30673074722290039 2.23975610733032227 -1.36569178104400635 -0.0697072669863700867 -0.993631720542907715 0.0885262340307235718
-1.383797287940979 2.24910354614257812 -1.31669723987579346 -0.0601017363369464874 -0.989165246486663818 0.133940026164054871
-1.34093153476715088 2.22991538047790527 -1.23974335193634033 -0.358061522245407104 -0.843520939350128174 -0.400330334901809692
-1.22174584865570068 2.1822667121887207 -1.28177785873413086 -0.401636630296707153 -0.670415401458740234 -0.623884022235870361
-1.17322814464569092 2.15880560874938965 -1.28607439994812012 -0.29871213436126709 -0.646043479442596436 -0.702423572540283203
-1.08267307281494141 2.11892271041870117 -1.27936244010925293 -0.182884752750396729 -0.566425502300262451 -0.803564131259918213
-1.05025613307952881 2.16399049758911133 -1.31823468208312988 -0.0965988412499427795 -0.616638004779815674 -0.781297802925109863
-0.998239398002624512 2.15640497207641602 -1.30853486061096191 -0.0255523305386304855 -0.157500594854354858 -0.987188220024108887
-1.16221904754638672 2.11735820770263672 -1.25363576412200928 -0.327715605497360229 -0.683832705020904541 -0.651901304721832275
-1.1867985725402832 2.10224723815917969 -1.21784889698028564 -0.14263896644115448 -0.796224355697631836 -0.587946295738220215
-1.21456849575042725 2.13832497596740723 -1.24536466598510742 -0.44311109185218811 -0.597657978534698486 -0.66817474365234375
-1.25819456577301025 2.16620087623596191 -1.23803699016571045 -0.535982728004455566 -0.577628910541534424 -0.615684449672698975
-1.31209433078765869 2.17813634872436523 -1.19583284854888916 -0.291548162698745728 -0.687678217887878418 -0.664904773235321045
-1.28382587432861328 2.11553359031677246 -1.16951668262481689 -0.584910809993743896 -0.535014748573303223 -0.609621644020080566
-1.24705588817596436 2.12207269668579102 -1.20744168758392334 -0.517033934593200684 -0.569693088531494141 -0.638847172260284424
-1.26437485218048096 2.06005549430847168 -1.13304316997528076 -0.567572355270385742 -0.605135083198547363 -0.558276951313018799
-1.30707240104675293 2.08180832862854004 -1.11100590229034424 -0.610379457473754883 -0.590457379817962646 -0.528012275695800781
-1.34869301319122314 2.11318683624267578 -1.09759867191314697 -0.582788527011871338 -0.581961214542388916 -0.567167282104492188
-1.31444859504699707 1.97159099578857422 -0.988285481929779053 -0.603139042854309082 -0.46807330846786499 -0.645856559276580811
-1.33929049968719482 2.01214361190795898 -0.999057650566101074 -0.293202877044677734 -0.776322066783905029 -0.557992935180664062
-1.29610395431518555 1.93712520599365234 -0.964300692081451416 -0.41334080696105957 -0.690737009048461914 -0.593322694301605225
-1.29577326774597168 2.01172757148742676 -1.04682207107543945 -0.571501314640045166 -0.59957730770111084 -0.560261845588684082
-1.23663151264190674 1.98734688758850098 -1.0836944580078125 -0.582641065120697021 -0.619148790836334229 -0.526482820510864258
-1.23197126388549805 1.94549453258514404 -1.03488385677337646 -0.545503854751586914 -0.699057281017303467 -0.462325036525726318
-1.21395623683929443 1.91132950782775879 -0.995552957057952881 -0.435091078281402588 -0.785985946655273438 -0.439228713512420654
-1.13820266723632812 1.87791788578033447 -0.985334575176239014 -0.221214190125465393 -0.933694362640380859 -0.281565457582473755
-1.1678471565246582 1.86815178394317627 -0.939730942249298096 -0.206447526812553406 -0.881704270839691162 -0.424236953258514404
-1.08456194400787354 1.82962524890899658 -0.888402640819549561 0.0158108789473772049 -0.832566559314727783 -0.553699374198913574
-1.13110923767089844 1.80446672439575195 -0.848423600196838379 -0.154076710343360901 -0.792095065116882324 -0.590631663799285889
-1.17884397506713867 1.84252488613128662 -0.888103246688842773 -0.222820565104484558 -0.827192425727844238 -0.515852391719818115
-1.21190071105957031 1.87371861934661865 -0.909345448017120361 -0.394288003444671631 -0.570853948593139648 -0.720182418823242188
-1.25251865386962891 1.91099250316619873 -0.959808170795440674 -0.36151421070098877 -0.786566555500030518 -0.500620186328887939
-1.30908679962158203 1.90088844299316406 -0.915989875793457031 -0.238219499588012695 -0.758054196834564209 -0.607128739356994629
-1.31114578247070312 1.87125527858734131 -0.874730944633483887 -0.192188143730163574 -0.834294617176055908 -0.516736149787902832
-1.36776471138000488 1.90450525283813477 -0.902540206909179688 -0.141343757510185242 -0.75233989953994751 -0.643433451652526855
-1.34309983253479004 1.94350552558898926 -0.948816537857055664 -0.208243429660797119 -0.672651946544647217 -0.710052132606506348
-1.39636242389678955 1.96397924423217773 -0.955331504344940186 -0.0690968483686447144 -0.614324688911437988 -0.7860221266746521
-1.42625248432159424 2.00184464454650879 -0.980047106742858887 -0.0287547856569290161 -0.551970839500427246 -0.833367466926574707
-1.48027610778808594 2.00412487983703613 -0.981009185314178467 0.0286238677799701691 -0.517088174819946289 -0.855453372001647949
-1.47363579273223877 2.10794854164123535 -1.02682197093963623 -0.124820083379745483 -0.391167283058166504 -0.911815822124481201
-1.48652088642120361 2.14870858192443848 -1.04386341571807861 -0.255379974842071533 -0.469045341014862061 -0.845445156097412109
-1.52209854125976562 2.09855890274047852 -1.01868057250976562 -0.0495867915451526642 -0.273521512746810913 -0.960586845874786377
-1.58687853813171387 2.06940412521362305 -1.0089792013168335 -0.09351300448179245 -0.149775832891464233 -0.984287798404693604
-1.53280556201934814 2.00502800941467285 -0.984787225723266602 0.0987892970442771912 -0.539251208305358887 -0.836330533027648926
-1.50732028484344482 2.05145120620727539 -1.00440454483032227 0.0202955920249223709 -0.314246118068695068 -0.949124574661254883
-1.53184056282043457 1.96030306816101074 -0.951178610324859619 0.0795968919992446899 -0.673849344253540039 -0.73456883430480957
-1.45009016990661621 1.96111512184143066 -0.949940025806427002 -0.0202668961137533188 -0.634498655796051025 -0.772658169269561768
-1.45060312747955322 1.92178237438201904 -0.909134328365325928 -0.0877193808555603027 -0.799183368682861328 -0.594652235507965088
-1.51804423332214355 1.92031943798065186 -0.903013765811920166 0.0141161717474460602 -0.848984956741333008 -0.528228461742401123
-1.59648525714874268 1.95121705532073975 -0.946847259998321533 -0.0286068487912416458 -0.757605493068695068 -0.652085542678833008
-1.65173709392547607 1.97299051284790039 -0.957956492900848389 -0.24936366081237793 -0.635407745838165283 -0.730804145336151123
-1.5976717472076416 2.00556731224060059 -0.989106833934783936 -0.00432697078213095665 -0.415866643190383911 -0.909415304660797119
-1.64265906810760498 2.01919937133789062 -0.988124549388885498 -0.294756442308425903 -0.322879284620285034 -0.899370670318603516
-1.69797813892364502 1.97438251972198486 -0.926593482494354248 -0.585434198379516602 -0.588016271591186523 -0.558125078678131104
-1.7300870418548584 1.98707795143127441 -0.884140133857727051 -0.827016353607177734 -0.503102540969848633 -0.250862032175064087
-1.75298202037811279 1.99233889579772949 -0.801682054996490479 -0.822117507457733154 -0.55388188362121582 -0.131672590970993042
-1.77611958980560303 2.04322290420532227 -0.824199676513671875 -0.87358015775680542 -0.394984841346740723 -0.284331947565078735
-1.76900887489318848 2.07236337661743164 -0.866847813129425049 -0.933501541614532471 -0.128169700503349304 -0.334884107112884521
-1.79294323921203613 2.08837604522705078 -0.81762993335723877 -0.616170287132263184 -0.139253720641136169 -0.775204837322235107
-1.74725472927093506 2.07592964172363281 -0.909686446189880371 -0.835569620132446289 -0.116466708481311798 -0.536897480487823486
-1.76860380172729492 2.12508010864257812 -0.888140320777893066 -0.81734931468963623 -0.1419638991355896 -0.558378338813781738
-1.74627029895782471 2.15110325813293457 -0.923205971717834473 -0.738511323928833008 -0.106819421052932739 -0.665725648403167725
-1.79677414894104004 2.18552756309509277 -0.877659499645233154 -0.66364365816116333 -0.38886415958404541 -0.639031946659088135
-1.82335400581359863 2.15715599060058594 -0.829922616481781006 -0.641642630100250244 -0.435526192188262939 -0.631357014179229736
-1.82706403732299805 2.09951400756835938 -0.782441556453704834 -0.681540966033935547 -0.495373338460922241 -0.538615942001342773
-1.80135762691497803 2.05608034133911133 -0.774384915828704834 -0.745467960834503174 -0.518698275089263916 -0.418604403734207153
-1.77171885967254639 2.00274515151977539 -0.744210720062255859 -0.737134277820587158 -0.655056774616241455 -0.165932714939117432
-1.80991768836975098 2.03792119026184082 -0.730333983898162842 -0.622892439365386963 -0.66041797399520874 -0.419348418712615967
-1.75879526138305664 1.97260022163391113 -0.693148672580718994 -0.647821903228759766 -0.697881340980529785 -0.305431514978408813
-1.73482465744018555 1.96361613273620605 -0.765110194683074951 -0.746508181095123291 -0.66143643856048584 -0.0723005309700965881
-1.70997881889343262 1.93854737281799316 -0.725316405296325684 -0.550423979759216309 -0.831942141056060791 0.0700412318110466003
-1.69260025024414062 1.9227067232131958 -0.766392409801483154 -0.646664977073669434 -0.762694120407104492 -0.0110465846955776215
-1.67528343200683594 1.89522039890289307 -0.658572733402252197 -0.507592499256134033 -0.772546112537384033 -0.381473958492279053
-1.61806321144104004 1.87907493114471436 -0.746716320514678955 -0.310846537351608276 -0.948625385761260986 0.0590278282761573792
-1.62935984134674072 1.88324368000030518 -0.695657849311828613 -0.35442274808883667 -0.931512117385864258 -0.0816681087017059326
-1.63379669189453125 1.8729938268661499 -0.644661128520965576 -0.284050941467285156 -0.917256414890289307 -0.279205501079559326
-1.61613583564758301 1.85594546794891357 -0.603403866291046143 -0.175073191523551941 -0.948272705078125 -0.264817357063293457
-1.66269993782043457 1.86784279346466064 -0.603816747665405273 -0.298559427261352539 -0.88771432638168335 -0.350464731454849243
-1.74778985977172852 1.94401288032531738 -0.65568697452545166 -0.576291382312774658 -0.717100679874420166 -0.39198833703994751
-1.78256511688232422 1.94844901561737061 -0.620425820350646973 -0.532936573028564453 -0.68026965856552124 -0.503201544284820557
-1.81270849704742432 1.92105591297149658 -0.552433311939239502 -0.498376995325088501 -0.703477919101715088 -0.506694376468658447
-1.86881482601165771 1.94298207759857178 -0.526811361312866211 -0.503039300441741943 -0.701597630977630615 -0.504690229892730713
-1.85550665855407715 1.96440255641937256 -0.569764018058776855 -0.44905620813369751 -0.748190641403198242 -0.488425344228744507
-1.92494869232177734 1.97620797157287598 -0.523268699645996094 -0.412588357925415039 -0.795571506023406982 -0.443662911653518677
-1.97866714000701904 1.97733390331268311 -0.470884829759597778 -0.453794211149215698 -0.771042287349700928 -0.446726530790328979
-2.01791763305664062 2.00722980499267578 -0.491886883974075317 -0.414852946996688843 -0.859713375568389893 -0.297976464033126831
-2.10296630859375 2.05550193786621094 -0.457686305046081543 -0.0980161875486373901 -0.819913864135742188 -0.564033806324005127
-2.00454211235046387 1.96096646785736084 -0.417351216077804565 -0.591628730297088623 -0.675602614879608154 -0.439927905797958374
-2.04607963562011719 1.9766160249710083 -0.384605258703231812 -0.398316383361816406 -0.489106476306915283 -0.775963187217712402
-2.0889136791229248 2.00665807723999023 -0.402529150247573853 -0.456898301839828491 -0.745822787284851074 -0.484760075807571411
-2.13968920707702637 2.04658389091491699 -0.414092093706130981 -0.522439301013946533 -0.678738892078399658 -0.516111075878143311
-2.09108543395996094 2.05268526077270508 -0.517315566539764404 -0.497416973114013672 -0.867502033710479736 0.00407011900097131729
-2.11669683456420898 2.078765869140625 -0.556886136531829834 -0.652390122413635254 -0.7295188307762146 -0.205400571227073669
-2.10495686531066895 2.09202075004577637 -0.600229442119598389 -0.634070456027984619 -0.599761426448822021 -0.488099277019500732
-2.06097865104675293 2.04964399337768555 -0.573272645473480225 -0.382139980792999268 -0.873031556606292725 -0.30296027660369873
-2.03795576095581055 2.05926251411437988 -0.619023740291595459 -0.393563121557235718 -0.797699332237243652 -0.45692870020866394
-2.09435153007507324 2.15686178207397461 -0.658895432949066162 -0.684679567813873291 -0.320411890745162964 -0.654637396335601807
-1.98674106597900391 2.14381122589111328 -0.735367834568023682 -0.415928512811660767 -0.373283475637435913 -0.829254448413848877
-1.96408927440643311 2.20046520233154297 -0.773704409599304199 -0.44815593957901001 -0.4188862144947052 -0.789740860462188721
-1.95098221302032471 2.27432394027709961 -0.833553731441497803 -0.490303456783294678 -0.595007002353668213 -0.63684314489364624
-2.08247518539428711 2.26833748817443848 -0.723527312278747559 -0.627694308757781982 -0.401689469814300537 -0.666817367076873779
-2.12160968780517578 2.2775721549987793 -0.691077649593353271 -0.642303764820098877 -0.40627482533454895 -0.649912774562835693
-2.13643956184387207 2.32811999320983887 -0.71368706226348877 -0.587467730045318604 -0.515305578708648682 -0.623972654342651367
-2.24864840507507324 2.32974433898925781 -0.603761494159698486 -0.555489838123321533 -0.636368513107299805 -0.535225331783294678
-2.21819043159484863 2.28896570205688477 -0.593797028064727783 -0.671811997890472412 -0.525055587291717529 -0.52247995138168335
-2.26200723648071289 2.29762506484985352 -0.551592528820037842 -0.59699559211730957 -0.607745468616485596 -0.52368086576461792
-2.2893059253692627 2.28444910049438477 -0.503422915935516357 -0.581674098968505859 -0.645701766014099121 -0.494696289300918579
-2.25927424430847168 2.23706579208374023 -0.480105966329574585 -0.654392540454864502 -0.60388869047164917 -0.45507010817527771
-2.22355318069458008 2.2000119686126709 -0.488720089197158813 -0.739667713642120361 -0.541013240814208984 -0.400245398283004761
-2.19347763061523438 2.15822100639343262 -0.490059256553649902 -0.773852705955505371 -0.528996109962463379 -0.348303169012069702
-2.14393305778503418 2.09024477005004883 -0.488008022308349609 -0.739408552646636963 -0.633339643478393555 -0.228376775979995728
-2.15709924697875977 2.08347177505493164 -0.445294827222824097 -0.665160596370697021 -0.630456626415252686 -0.400107264518737793
-2.20158171653747559 2.1111454963684082 -0.42288777232170105 -0.595793306827545166 -0.506230473518371582 -0.623507082462310791
-2.25724887847900391 2.18941593170166016 -0.425952523946762085 -0.659229576587677002 -0.498382151126861572 -0.563055634498596191
-2.29307317733764648 2.1382453441619873 -0.370776593685150146 -0.572563767433166504 -0.187748834490776062 -0.798073410987854004
-2.25321555137634277 2.06435751914978027 -0.368858486413955688 -0.328710407018661499 -0.169441342353820801 -0.929106593132019043
-2.21436166763305664 2.07520556449890137 -0.390777945518493652 -0.42932465672492981 -0.437981903553009033 -0.789843142032623291
-2.17184662818908691 2.02937579154968262 -0.378191649913787842 -0.261870652437210083 -0.590843677520751953 -0.763103842735290527
-2.1492927074432373 1.98547780513763428 -0.347064614295959473 -0.133551076054573059 -0.638881504535675049 -0.757624268531799316
-2.22645282745361328 2.0218195915222168 -0.358677953481674194 -0.1939726322889328 -0.510231196880340576 -0.837877511978149414
-2.32775235176086426 2.0561976432800293 -0.334402382373809814 -0.444881170988082886 -0.189332917332649231 -0.875347793102264404
-2.33681845664978027 2.12169504165649414 -0.33700224757194519 -0.594119608402252197 -0.0849401876330375671 -0.79987943172454834
-2.38562703132629395 2.0585792064666748 -0.287630945444107056 -0.745878040790557861 -0.0591005794703960419 -0.663455426692962646
-2.41005897521972656 2.07641172409057617 -0.252603828907012939 -0.90009605884552002 -0.0323776304721832275 -0.434486836194992065
-2.42181897163391113 2.04109597206115723 -0.203057527542114258 -0.967596709728240967 -0.210977509617805481 -0.138726547360420227
-2.43190264701843262 2.07385063171386719 -0.164692685008049011 -0.981186866760253906 -0.175670623779296875 -0.0800760760903358459
-2.4482123851776123 2.10456490516662598 -0.0646673291921615601 -0.909774124622344971 -0.391179203987121582 -0.138887837529182434
-2.48481416702270508 2.21018147468566895 -0.138542488217353821 -0.708667337894439697 -0.619346857070922852 -0.337935000658035278
-2.52332186698913574 2.22797822952270508 -0.102743841707706451 -0.551857590675354004 -0.7443198561668396 -0.376086622476577759
-2.51753997802734375 2.20480132102966309 -0.0541268214583396912 -0.252968847751617432 -0.894368767738342285 -0.368932545185089111
-2.48335123062133789 2.18556046485900879 -0.0961174070835113525 -0.85916978120803833 -0.484176784753799438 -0.165529847145080566
-2.48368144035339355 2.25210356712341309 -0.217855289578437805 -0.630183279514312744 -0.676980495452880859 -0.38021889328956604
-2.45067024230957031 2.24890351295471191 -0.263516843318939209 -0.637994050979614258 -0.643961548805236816 -0.422228723764419556
-2.41860723495483398 2.18083310127258301 -0.24829217791557312 -0.816986620426177979 -0.00558110978454351425 -0.576629638671875
-2.39642548561096191 2.14982223510742188 -0.27878868579864502 -0.823949813842773438 -0.0668697506189346313 -0.562703430652618408
-2.42770957946777344 2.1401216983795166 -0.219108670949935913 -0.925560057163238525 -0.0664583742618560791 -0.372722268104553223
-2.44186568260192871 2.1026914119720459 -0.112932875752449036 -0.95851057767868042 -0.266525924205780029 -0.101101137697696686
-2.45884442329406738 2.16787314414978027 -0.138159260153770447 -0.870754659175872803 -0.423804700374603271 -0.249350965023040771
-2.46659517288208008 2.21318912506103516 -0.185504540801048279 -0.790752172470092773 -0.474736303091049194 -0.38644072413444519
-2.38113689422607422 2.1935727596282959 -0.308783888816833496 -0.72933584451675415 -0.245113134384155273 -0.638740003108978271
-2.34716153144836426 2.18801045417785645 -0.341585397720336914 -0.651964962482452393 -0.279332339763641357 -0.704922080039978027
-2.37679100036621094 2.23145532608032227 -0.337147831916809082 -0.637556552886962891 -0.488975465297698975 -0.595335781574249268
-2.41698503494262695 2.25208449363708496 -0.312027722597122192 -0.611943542957305908 -0.62599414587020874 -0.483380168676376343
-2.52949833869934082 2.27086043357849121 -0.188649341464042664 -0.474989980459213257 -0.810384988784790039 -0.343017101287841797
-2.37021732330322266 2.26051902770996094 -0.374640583992004395 -0.550683319568634033 -0.67738264799118042 -0.487750589847564697
-2.34398412704467773 2.29005146026611328 -0.433069884777069092 -0.852394402027130127 -0.438481241464614868 -0.284882336854934692
-2.32966446876525879 2.30898022651672363 -0.492283910512924194 -0.519019484519958496 -0.708115637302398682 -0.478738993406295776
-2.30590438842773438 2.23952102661132812 -0.421293407678604126 -0.615534186363220215 -0.62369692325592041 -0.481788188219070435
-2.32202029228210449 2.21423435211181641 -0.379788607358932495 -0.635183751583099365 -0.461117267608642578 -0.619606673717498779
-2.42216992378234863 2.31610226631164551 -0.411825746297836304 -0.407696902751922607 -0.816189169883728027 -0.40941232442855835
-2.43706822395324707 2.29748749732971191 -0.360366553068161011 -0.462625741958618164 -0.7863273024559021 -0.409471422433853149
-2.44664907455444336 2.33109498023986816 -0.452263832092285156 0.0967546626925468445 -0.995223164558410645 0.013013109564781189
-2.55787301063537598 2.30824828147888184 -0.434949636459350586 0.400150090456008911 -0.87011873722076416 0.287703514099121094
-2.56152963638305664 2.27418804168701172 -0.530309557914733887 0.431634277105331421 -0.850989282131195068 0.299180656671524048
-2.54597258567810059 2.26741409301757812 -0.57378232479095459 0.437999755144119263 -0.852201521396636963 0.286197066307067871
-2.59431600570678711 2.24245476722717285 -0.571327567100524902 0.457984507083892822 -0.838367104530334473 0.295619308948516846
-2.58049869537353516 2.22014522552490234 -0.686113834381103516 0.537135839462280273 -0.838294327259063721 0.0935294777154922485
-2.55045485496520996 2.24159383773803711 -0.659714639186859131 0.49371105432510376 -0.860371649265289307 0.126530811190605164
-2.4535677433013916 2.29578280448913574 -0.646004378795623779 0.450201988220214844 -0.879796385765075684 0.152566507458686829
-2.49833393096923828 2.27326703071594238 -0.642860531806945801 0.463048636913299561 -0.871693134307861328 0.160427674651145935
-2.45040774345397949 2.31273078918457031 -0.585531413555145264 0.437511712312698364 -0.862854361534118652 0.253112375736236572
-2.40777897834777832 2.31686258316040039 -0.661863744258880615 0.466728240251541138 -0.871909737586975098 0.14811551570892334
-2.39586496353149414 2.32337164878845215 -0.759277939796447754 0.541695713996887207 -0.833679556846618652 -0.107443384826183319
-2.32944464683532715 2.36310720443725586 -0.72396540641784668 0.529215157032012939 -0.836980164051055908 -0.139268010854721069
-2.31200981140136719 2.36569714546203613 -0.672553598880767822 0.372980892658233643 -0.924714446067810059 -0.0760817080736160278
-2.30589199066162109 2.36223912239074707 -0.617735564708709717 0.180448725819587708 -0.970848202705383301 -0.157772138714790344
-2.30565905570983887 2.32169032096862793 -0.535637199878692627 -0.516967356204986572 -0.693692266941070557 -0.501533448696136475
-2.4466249942779541 2.32594799995422363 -0.539060235023498535 0.343309938907623291 -0.917875587940216064 0.199104726314544678
-2.49070286750793457 2.3084099292755127 -0.533438205718994141 0.424434870481491089 -0.863542854785919189 0.272302806377410889
-2.35933017730712891 2.34347057342529297 -0.656495392322540283 0.457219839096069336 -0.887198984622955322 0.0618708468973636627
-2.37604498863220215 2.33880519866943359 -0.504519641399383545 0.0261701643466949463 -0.999064207077026367 0.0344360396265983582
-2.34242439270019531 2.34925460815429688 -0.572779476642608643 0.244005769491195679 -0.969465970993041992 -0.0244314875453710556
-2.20185542106628418 2.3540186882019043 -0.677138149738311768 -0.525898337364196777 -0.643809676170349121 -0.555823802947998047
-2.1654055118560791 2.36864686012268066 -0.728699386119842529 -0.52011638879776001 -0.673103868961334229 -0.525747239589691162
-2.10741090774536133 2.34726428985595703 -0.761750578880310059 -0.562853813171386719 -0.615851342678070068 -0.551291823387145996
-2.12072062492370605 2.38618898391723633 -0.864842712879180908 -0.224619179964065552 -0.918321430683135986 0.325932472944259644
-2.15064740180969238 2.35181856155395508 -0.939021468162536621 -0.157839849591255188 -0.8141745924949646 0.558754265308380127
-2.11344480514526367 2.3905489444732666 -0.815695583820343018 -0.460285604000091553 -0.801624834537506104 -0.381490200757980347
-1.98204660415649414 2.31224966049194336 -0.845030903816223145 -0.524024248123168945 -0.620669841766357422 -0.583238840103149414
-1.92430853843688965 2.3162837028503418 -0.903199195861816406 -0.494432568550109863 -0.702903270721435547 -0.51133495569229126
-1.87890326976776123 2.29822683334350586 -0.91976320743560791 -0.473997831344604492 -0.696374595165252686 -0.53887706995010376
-1.80777716636657715 2.28660845756530762 -0.965887904167175293 -0.674101173877716064 -0.646964848041534424 -0.356404393911361694
-1.87993931770324707 2.33122658729553223 -0.974073469638824463 -0.335644304752349854 -0.904349923133850098 -0.263617277145385742
-1.95894169807434082 2.34337568283081055 -0.951835513114929199 -0.0152906849980354309 -0.979754447937011719 0.199618235230445862
-1.97006130218505859 2.33883786201477051 -0.891255855560302734 -0.477885663509368896 -0.743226230144500732 -0.468230783939361572
-2.03786754608154297 2.36625337600708008 -0.880342006683349609 -0.183170437812805176 -0.963702380657196045 0.19423261284828186
-2.08741450309753418 2.3520514965057373 -0.928023159503936768 -0.0106378123164176941 -0.888890206813812256 0.45799669623374939
-2.01113486289978027 2.33672928810119629 -0.974372327327728271 0.0646747574210166931 -0.934177160263061523 0.350899100303649902
-1.95577895641326904 2.33262753486633301 -1.00469779968261719 0.124416999518871307 -0.953968286514282227 0.272882610559463501
-1.89754974842071533 2.33098602294921875 -1.02800369262695312 0.0326889604330062866 -0.997085452079772949 0.0689350664615631104
-1.82252287864685059 2.32724380493164062 -1.04028236865997314 -0.109769292175769806 -0.993870973587036133 0.0130836283788084984
-1.84135377407073975 2.3181920051574707 -1.11778926849365234 0.221055582165718079 -0.906921505928039551 0.358647137880325317
-1.83463466167449951 2.29747700691223145 -1.16774296760559082 0.279690951108932495 -0.867903351783752441 0.410507857799530029
-1.7543644905090332 2.31838631629943848 -1.13711833953857422 -0.0898504778742790222 -0.989447236061096191 0.113670997321605682
-1.74169564247131348 2.31638956069946289 -1.08964753150939941 -0.231634512543678284 -0.959471046924591064 -0.160501569509506226
-1.73634481430053711 2.29803872108459473 -1.04237139225006104 -0.150902166962623596 -0.816630780696868896 -0.557084083557128906
-1.688254714012146 2.27452230453491211 -1.0476372241973877 -0.597551405429840088 -0.573416471481323242 -0.560469269752502441
-1.66475045680999756 2.28901267051696777 -1.0898967981338501 -0.355434775352478027 -0.837844908237457275 -0.414345234632492065
-1.64210677146911621 2.25720548629760742 -1.05844700336456299 -0.401989012956619263 -0.664553940296173096 -0.629899084568023682
-1.73897373676300049 2.25893163681030273 -0.98969423770904541 -0.483165949583053589 -0.65452730655670166 -0.581502079963684082
-1.72574269771575928 2.20984578132629395 -0.962062954902648926 -0.607618331909179688 -0.397236675024032593 -0.687752127647399902
-1.66266500949859619 2.20942091941833496 -1.00290882587432861 -0.663992702960968018 -0.464551687240600586 -0.585922718048095703
-1.6963120698928833 2.24567699432373047 -1.01015090942382812 -0.505063056945800781 -0.523683130741119385 -0.68605196475982666
-1.5819011926651001 2.23133158683776855 -1.06507730484008789 -0.333257019519805908 -0.658273041248321533 -0.674993634223937988
-1.41052281856536865 2.14008927345275879 -1.07090532779693604 -0.45701068639755249 -0.603552937507629395 -0.653349161148071289
-1.37656855583190918 2.09189152717590332 -1.05232441425323486 -0.458722621202468872 -0.577634513378143311 -0.675212502479553223
-1.37149286270141602 2.04433083534240723 -1.0184863805770874 -0.350249588489532471 -0.554601192474365234 -0.754813015460968018
-1.418770432472229 2.06265640258789062 -1.01516067981719971 -0.191124394536018372 -0.459923744201660156 -0.867145657539367676
-1.3904191255569458 2.17702865600585938 -1.12346243858337402 -0.466565459966659546 -0.672519981861114502 -0.574485421180725098
-1.35048747062683105 2.18030405044555664 -1.16247546672821045 -0.547861754894256592 -0.607278823852539062 -0.575378060340881348
-1.39275085926055908 2.2357332706451416 -1.20861220359802246 -0.329694151878356934 -0.859266698360443115 -0.391104280948638916
-1.41882169246673584 2.22359490394592285 -1.16309571266174316 -0.422052711248397827 -0.775955677032470703 -0.468790203332901001
-1.43129527568817139 2.25693416595458984 -1.28442072868347168 -0.0765344873070716858 -0.9841117262840271 0.16020791232585907
-1.47866225242614746 2.2682487964630127 -1.23640644550323486 -0.120335914194583893 -0.985936820507049561 0.115964725613594055
-1.48671627044677734 2.25167202949523926 -1.15834951400756836 -0.354226738214492798 -0.859278559684753418 -0.369003742933273315
-1.55092990398406982 2.27408885955810547 -1.13853514194488525 -0.245907485485076904 -0.966120481491088867 0.0783627778291702271
-1.51758134365081787 2.24220371246337891 -1.11249446868896484 -0.640599846839904785 -0.569345176219940186 -0.515245497226715088
-1.43703782558441162 2.19105172157287598 -1.10094928741455078 -0.566107332706451416 -0.786278784275054932 -0.247564449906349182
-1.48119258880615234 2.2128753662109375 -1.09867250919342041 -0.311171382665634155 -0.859522104263305664 -0.40545538067817688
-1.51666224002838135 2.27479052543640137 -1.19563710689544678 -0.284352988004684448 -0.933133125305175781 -0.220013454556465149
-1.56026089191436768 2.27817368507385254 -1.23791921138763428 -0.112077482044696808 -0.978293120861053467 0.174301937222480774
-1.53713500499725342 2.26603293418884277 -1.28939878940582275 -0.104335226118564606 -0.972486138343811035 0.208290219306945801
-1.5868152379989624 2.27239489555358887 -1.27989733219146729 -0.0954498350620269775 -0.972054183483123779 0.21447598934173584
-1.58253121376037598 2.25849199295043945 -1.33963334560394287 -0.0747664570808410645 -0.969070971012115479 0.23518390953540802
-1.48571860790252686 2.26166653633117676 -1.286216139793396 -0.0960368216037750244 -0.979973554611206055 0.174438372254371643
-1.46430623531341553 2.24919962882995605 -1.34268665313720703 -0.0708888992667198181 -0.979269504547119141 0.189752534031867981
-1.39245772361755371 2.24217653274536133 -1.36412966251373291 -0.030979156494140625 -0.986544549465179443 0.160530909895896912
-1.50904500484466553 2.24463057518005371 -1.37623000144958496 -0.0450116656720638275 -0.974107861518859863 0.221557855606079102
-1.61313879489898682 2.24732208251953125 -1.38601112365722656 -0.0313769504427909851 -0.941903889179229736 0.334413707256317139
-1.55465984344482422 2.23897290229797363 -1.40263926982879639 -0.0321097150444984436 -0.956141114234924316 0.291141033172607422
-1.49905073642730713 2.21701717376708984 -1.46572935581207275 0.0149862216785550117 -0.910004734992980957 0.414326906204223633
-1.60197806358337402 2.12253260612487793 -1.46811556816101074 0.267744064331054688 0.535654187202453613 0.800866842269897461
-1.64287257194519043 2.09373283386230469 -1.42213833332061768 0.321166753768920898 0.731625020503997803 0.601312518119812012
-1.6229318380355835 1.98981165885925293 -1.30701065063476562 0.456002146005630493 0.586499989032745361 0.669387638568878174
-1.6204383373260498 2.04038310050964355 -1.36581230163574219 0.383622407913208008 0.731030404567718506 0.564294636249542236
-1.64621734619140625 1.88439571857452393 -1.20701360702514648 0.231466516852378845 0.669711709022521973 0.705627024173736572
-1.60115814208984375 1.77708423137664795 -1.09617304801940918 0.0981942266225814819 0.707287013530731201 0.700073540210723877
-1.64694559574127197 1.75658738613128662 -1.06513500213623047 0.283024042844772339 0.665121614933013916 0.691021442413330078
-1.65095651149749756 1.83484780788421631 -1.14968729019165039 0.245059266686439514 0.746462345123291016 0.618659794330596924
-1.69994580745697021 1.86477184295654297 -1.16299796104431152 0.303643345832824707 0.730808854103088379 0.611325740814208984
-1.68591761589050293 1.94514119625091553 -1.23828279972076416 0.366700083017349243 0.520667791366577148 0.770996809005737305
-1.72541821002960205 1.92366492748260498 -1.2063366174697876 0.3375072181224823 0.57391810417175293 0.746127963066101074
-1.73529374599456787 1.96605181694030762 -1.23120081424713135 0.31687435507774353 0.503320813179016113 0.803902208805084229
-1.77428567409515381 1.95596432685852051 -1.2070462703704834 0.412761658430099487 0.53245699405670166 0.738997519016265869
-1.77118182182312012 1.99788248538970947 -1.23798036575317383 0.282135605812072754 0.547539651393890381 0.787781596183776855
-1.8284151554107666 2.07867240905761719 -1.30089366436004639 0.201855778694152832 0.79409492015838623 0.573295354843139648
-1.77838146686553955 2.0781853199005127 -1.31855058670043945 0.215398296713829041 0.823966324329376221 0.524102151393890381
-1.72303998470306396 2.10315799713134766 -1.38587045669555664 0.294270187616348267 0.794677317142486572 0.530935943126678467
-1.68496513366699219 2.16646432876586914 -1.44989359378814697 0.447494834661483765 -0.0479071624577045441 0.89300239086151123
-1.6867445707321167 2.2206571102142334 -1.42766153812408447 0.25975644588470459 -0.758281469345092773 0.597942948341369629
-1.73217785358428955 2.15207290649414062 -1.43306434154510498 0.188476294279098511 0.467886358499526978 0.863457620143890381
-1.83469951152801514 2.13323044776916504 -1.37255012989044189 0.334714353084564209 0.737881720066070557 0.586086034774780273
-1.7839583158493042 2.11096429824829102 -1.36808681488037109 0.251346468925476074 0.809299111366271973 0.530904829502105713
-1.89810669422149658 2.10859823226928711 -1.30586862564086914 0.365493476390838623 0.706156253814697266 0.606430470943450928
-1.86924088001251221 2.04611110687255859 -1.24067997932434082 0.329307287931442261 0.771354734897613525 0.544581115245819092
-1.85188615322113037 2.00912046432495117 -1.20522713661193848 0.405175656080245972 0.664248049259185791 0.6281777024269104
-1.86343061923980713 1.97194898128509521 -1.1595151424407959 0.484748929738998413 0.610139429569244385 0.626696407794952393
-1.80650365352630615 1.9279787540435791 -1.1612088680267334 0.490260124206542969 0.603133618831634521 0.629185914993286133
-1.78645515441894531 1.86025333404541016 -1.09066987037658691 0.462389856576919556 0.760348081588745117 0.456142991781234741
-1.8304823637008667 1.88070523738861084 -1.07946562767028809 0.449370324611663818 0.748368501663208008 0.487863630056381226
-1.77711319923400879 1.81932425498962402 -1.03232371807098389 0.457931101322174072 0.761404871940612793 0.458870023488998413
-1.72570705413818359 1.81723296642303467 -1.08251595497131348 0.452003777027130127 0.743480861186981201 0.4928780198097229
-1.70991253852844238 1.78126084804534912 -1.04475605487823486 0.555254936218261719 0.689845442771911621 0.464548438787460327
-1.70652604103088379 1.75083696842193604 -1.00684666633605957 0.579238593578338623 0.650366544723510742 0.49143257737159729
-1.62629950046539307 1.65234935283660889 -0.972770094871520996 0.511911392211914062 0.625306308269500732 0.589015007019042969
-1.60300016403198242 1.61494946479797363 -0.951332986354827881 0.492499381303787231 0.666313886642456055 0.559884071350097656
-1.58182621002197266 1.5720360279083252 -0.915829360485076904 0.470275253057479858 0.707799196243286133 0.527125716209411621
-1.61066150665283203 1.55506694316864014 -0.865216076374053955 0.497206896543502808 0.691344141960144043 0.524240970611572266
-1.65791141986846924 1.6230461597442627 -0.906259775161743164 0.542217493057250977 0.648540675640106201 0.53422391414642334
-1.6912233829498291 1.58870601654052734 -0.844346523284912109 0.31607469916343689 0.668920397758483887 0.672786951065063477
-1.75888264179229736 1.62068688869476318 -0.84531104564666748 0.301702052354812622 0.605209767818450928 0.736679732799530029
-1.77135670185089111 1.58395242691040039 -0.811204850673675537 0.300508409738540649 0.558880329132080078 0.772882580757141113
-1.81234860420227051 1.60875201225280762 -0.810425937175750732 0.442190229892730713 0.533221721649169922 0.72120898962020874
-1.75876784324645996 1.47750329971313477 -0.742568850517272949 0.0602575577795505524 0.601946055889129639 0.79625999927520752
-1.71895241737365723 1.45679938793182373 -0.727342784404754639 -0.032411620020866394 0.614902138710021973 0.787937045097351074
-1.65634191036224365 1.46415865421295166 -0.732585608959197998 0.0788851231336593628 0.66254115104675293 0.744859933853149414
-1.78238284587860107 1.54777240753173828 -0.782347023487091064 0.27976188063621521 0.523756802082061768 0.804619252681732178
-1.72605216503143311 1.55449199676513672 -0.80274122953414917 0.199728921055793762 0.592401027679443359 0.780493021011352539
-1.68290102481842041 1.54276907444000244 -0.804822683334350586 0.224145740270614624 0.653467714786529541 0.723006665706634521
-1.60971009731292725 1.52333557605743408 -0.824251115322113037 0.434252053499221802 0.718757390975952148 0.542966842651367188
-1.57296133041381836 1.49549317359924316 -0.814151346683502197 0.431848645210266113 0.781799614429473877 0.449773430824279785
-1.52915787696838379 1.47831058502197266 -0.821543037891387939 0.366101264953613281 0.829311668872833252 0.422151625156402588
-1.50121986865997314 1.49461472034454346 -0.869618833065032959 0.259674578905105591 0.791507124900817871 0.553250014781951904
-1.46446907520294189 1.54896664619445801 -0.936592340469360352 0.0409720167517662048 0.653769433498382568 0.755583763122558594
-1.42125070095062256 1.53100442886352539 -0.920894145965576172 -0.0574183613061904907 0.649453938007354736 0.758230030536651611
-1.36180698871612549 1.55457627773284912 -0.936370134353637695 -0.0649571269750595093 0.643805861473083496 0.762426793575286865
-1.4659346342086792 1.58647823333740234 -0.965822994709014893 -0.0301957409828901291 0.585249841213226318 0.81029057502746582
-1.54205560684204102 1.65486431121826172 -1.00903582572937012 0.0821697935461997986 0.531472206115722656 0.84308093786239624
-1.5349278450012207 1.72372066974639893 -1.05472517013549805 0.0516911260783672333 0.611020684242248535 0.789925158023834229
-1.58261466026306152 1.71771001815795898 -1.04707467555999756 0.0847978219389915466 0.607396721839904785 0.7898598313331604
-1.61425185203552246 1.68475568294525146 -1.01289784908294678 0.350666999816894531 0.623703598976135254 0.698588907718658447
-1.64764666557312012 1.72358012199401855 -1.03105819225311279 0.439713805913925171 0.654971301555633545 0.614544034004211426
-1.67720127105712891 1.79730141162872314 -1.09316694736480713 0.379771769046783447 0.703050017356872559 0.601243793964385986
-1.74287903308868408 1.85065639019012451 -1.11790835857391357 0.409679114818572998 0.755247950553894043 0.511628389358520508
-1.75762856006622314 1.88253617286682129 -1.15033972263336182 0.425350964069366455 0.707323849201202393 0.564596772193908691
-1.56223320960998535 1.59323084354400635 -0.954431235790252686 0.327512353658676147 0.684834599494934082 0.650951027870178223
-1.52248895168304443 1.53871250152587891 -0.914358675479888916 0.277035266160964966 0.695057392120361328 0.663435518741607666
-1.51314198970794678 1.56900215148925781 -0.948244214057922363 0.135178089141845703 0.659039437770843506 0.739860713481903076
-1.51362514495849609 1.60868310928344727 -0.98060154914855957 0.0720953717827796936 0.604065060615539551 0.793667256832122803
-1.57313287258148193 1.52564394474029541 -0.861397802829742432 0.478857696056365967 0.722434699535369873 0.498781919479370117
-1.59309136867523193 1.83835220336914062 -1.1694720983505249 0.130922019481658936 0.780003070831298828 0.61192697286605835
-1.32314503192901611 1.53263092041015625 -0.909646511077880859 -0.144299179315567017 0.708659708499908447 0.690636754035949707
-1.31189072132110596 1.48024189472198486 -0.844588756561279297 -0.268622279167175293 0.786311149597167969 0.556378304958343506
-1.3811488151550293 1.50511622428894043 -0.89204871654510498 -0.0837578028440475464 0.722639620304107666 0.686131596565246582
-1.30850303173065186 1.45304572582244873 -0.798187136650085449 -0.331299245357513428 0.835925400257110596 0.437572300434112549
-1.25778412818908691 1.50417017936706543 -0.852370858192443848 -0.297172755002975464 0.812148690223693848 0.502098441123962402
-1.26141273975372314 1.53495180606842041 -0.894845485687255859 -0.214185371994972229 0.743761897087097168 0.633200466632843018
-1.27509820461273193 1.4266510009765625 -0.699011623859405518 -0.403780668973922729 0.86284935474395752 0.30405956506729126
-1.31019866466522217 1.42355155944824219 -0.732819616794586182 -0.341837823390960693 0.880018353462219238 0.329719066619873047
-1.4427412748336792 1.49880778789520264 -0.88933032751083374 0.0456861518323421478 0.765209615230560303 0.642158091068267822
-1.48002016544342041 1.44192361831665039 -0.790938496589660645 0.248601004481315613 0.836902976036071777 0.487638115882873535
-1.56353914737701416 1.46732413768768311 -0.772242426872253418 0.363019704818725586 0.774631857872009277 0.517843782901763916
-1.6104118824005127 1.49338233470916748 -0.778853416442871094 0.329026311635971069 0.787780523300170898 0.520714521408081055
-1.84971129894256592 1.59522831439971924 -0.774997174739837646 0.541337728500366211 0.428706198930740356 0.723301053047180176
-1.9131544828414917 1.65122425556182861 -0.736336648464202881 0.75698322057723999 0.450412243604660034 0.473397493362426758
-1.90429306030273438 1.69096624851226807 -0.794977664947509766 0.661639690399169922 0.562791824340820312 0.495477855205535889
-1.9535825252532959 1.66209065914154053 -0.699773311614990234 0.550137877464294434 0.551075279712677002 0.627426803112030029
-1.87597894668579102 1.63617944717407227 -0.777336061000823975 0.694006800651550293 0.460834145545959473 0.553160429000854492
-1.84729492664337158 1.64346921443939209 -0.812243938446044922 0.557317376136779785 0.526434540748596191 0.642077863216400146
-1.80007302761077881 1.64880609512329102 -0.848357975482940674 0.389904260635375977 0.570386052131652832 0.722934603691101074
-1.73251044750213623 1.6436460018157959 -0.876659214496612549 0.324687331914901733 0.646676301956176758 0.690208613872528076
-1.72699081897735596 1.68058228492736816 -0.915821671485900879 0.398320853710174561 0.652395844459533691 0.644763648509979248
-1.77338957786560059 1.67880845069885254 -0.887324750423431396 0.396384209394454956 0.59073638916015625 0.702787339687347412
-1.86150729656219482 1.70743668079376221 -0.853833317756652832 0.497099936008453369 0.582122683525085449 0.643447637557983398
-1.88686645030975342 1.78437197208404541 -0.909624218940734863 0.44586297869682312 0.634268879890441895 0.63159257173538208
-1.84678614139556885 1.73929440975189209 -0.893674254417419434 0.450699865818023682 0.606422245502471924 0.655073821544647217
-1.79223060607910156 1.72526121139526367 -0.915689945220947266 0.420746833086013794 0.600566864013671875 0.679920196533203125
-1.72130382061004639 1.72171032428741455 -0.960995018482208252 0.511015534400939941 0.629487752914428711 0.585327506065368652
-1.76744508743286133 1.77862668037414551 -0.984258949756622314 0.42315673828125 0.673112630844116211 0.606512784957885742
