ply
format ascii 1.0
element vertex 379
property float x
property float y
property float z
property float nx
property float ny
property float nz
end_header
0.326555460691452026 4.8620753288269043 15.6853265762329102 0.134546488523483276 -0.00969086214900016785 0.990859866142272949
0.361268043518066406 4.799041748046875 15.6798315048217773 0.158795133233070374 -0.00969088543206453323 0.987263977527618408
0.378873527050018311 4.66960287094116211 15.6757287979125977 0.158795133233070374 -0.00969088543206453323 0.987263977527618408
0.379692614078521729 4.73556756973266602 15.6762447357177734 0.158795133233070374 -0.00969088543206453323 0.987263977527618408
0.372552633285522461 4.86630058288574219 15.6786766052246094 0.158795133233070374 -0.00969088543206453323 0.987263977527618408
0.464616775512695312 4.60223293304443359 15.6596822738647461 0.182975649833679199 -0.0154192419722676277 0.982996523380279541
0.463161200284957886 4.45628547668457031 15.6576633453369141 0.182975649833679199 -0.0154192419722676277 0.982996523380279541
0.4351176917552948 4.40652608871459961 15.6621036529541016 0.182984814047813416 -0.0154176130890846252 0.98299485445022583
0.414925038814544678 4.59426450729370117 15.6688070297241211 0.182984814047813416 -0.0154176130890846252 0.98299485445022583
0.41080862283706665 4.46244049072265625 15.6674623489379883 0.158783718943595886 -0.0154175879433751106 0.987192988395690918
0.503879785537719727 4.56134748458862305 15.6508913040161133 0.207129120826721191 -0.0154158016666769981 0.978192150592803955
0.483465284109115601 4.40015602111816406 15.6526727676391602 0.207109853625297546 -0.0154192410409450531 0.978196144104003906
0.47887757420539856 4.52103710174560547 15.6555500030517578 0.207109853625297546 -0.0154192410409450531 0.978196144104003906
0.480930060148239136 4.34503078460693359 15.6523408889770508 0.207109853625297546 -0.0154192410409450531 0.978196144104003906
0.493065476417541504 4.90368795394897461 15.6571006774902344 0.207144007086753845 -0.00969453528523445129 0.978262424468994141
0.49502292275428772 4.73668098449707031 15.6550312042236328 0.207144007086753845 -0.00969453528523445129 0.978262424468994141
0.533743381500244141 4.68064355850219727 15.6461648941040039 0.231062412261962891 -0.00969655066728591919 0.972890615463256836
0.543014049530029297 4.80995798110961914 15.6452512741088867 0.231062412261962891 -0.00969655066728591919 0.972890615463256836
0.533533155918121338 4.86920166015625 15.6480941772460938 0.231062412261962891 -0.00969655066728591919 0.972890615463256836
0.560773968696594238 4.74391698837280273 15.6403751373291016 0.231062412261962891 -0.00969655066728591919 0.972890615463256836
0.534408926963806152 5.00701713562011719 15.6492595672607422 0.231062412261962891 -0.00969655066728591919 0.972890615463256836
0.584800422191619873 4.35198211669921875 15.6290006637573242 0.231045812368392944 -0.01541886106133461 0.972820699214935303
0.578804969787597656 4.65010929107666016 15.6351499557495117 0.231045812368392944 -0.01541886106133461 0.972820699214935303
0.531345903873443604 4.36690044403076172 15.6419334411621094 0.231063023209571838 -0.0154157700017094612 0.972816646099090576
0.541422247886657715 4.46209526062011719 15.6410484313964844 0.231063023209571838 -0.0154157700017094612 0.972816646099090576
0.546415746212005615 4.50902891159057617 15.6406068801879883 0.231063023209571838 -0.0154157700017094612 0.972816646099090576
0.534382760524749756 4.61333799362182617 15.6451177597045898 0.231063023209571838 -0.0154157700017094612 0.972816646099090576
0.508807003498077393 5.05412960052490234 15.6552591323852539 0.207130417227745056 -0.0096965692937374115 0.978265285491943359
0.497748285531997681 4.97865676879882812 15.6568527221679688 0.207130417227745056 -0.0096965692937374115 0.978265285491943359
0.534093499183654785 5.48232126235961914 15.652491569519043 0.231108605861663818 -0.00608810177072882652 0.972908914089202881
0.565529346466064453 5.08012866973876953 15.6425075531005859 0.231108605861663818 -0.00608810177072882652 0.972908914089202881
0.538528144359588623 5.2960352897644043 15.6502723693847656 0.231108605861663818 -0.00608810177072882652 0.972908914089202881
0.586250841617584229 4.94775867462158203 15.6363544464111328 0.231102034449577332 -0.00969058368355035782 0.9728812575340271
0.478461772203445435 5.50301790237426758 15.6644878387451172 0.20716559886932373 -0.00608804402872920036 0.978286921977996826
0.518517851829528809 5.23134613037109375 15.6543140411376953 0.20716559886932373 -0.00608804402872920036 0.978286921977996826
0.508710324764251709 5.43296003341674805 15.6576461791992188 0.20716559886932373 -0.00608804402872920036 0.978286921977996826
0.523686826229095459 5.37301969528198242 15.6541013717651367 0.20716559886932373 -0.00608804402872920036 0.978286921977996826
0.520694911479949951 5.10948991775512695 15.6530952453613281 0.20713631808757782 -0.00609189784154295921 0.978293120861053467
0.607526421546936035 4.84830904006958008 15.629786491394043 0.254909634590148926 -0.00969060417264699936 0.966916322708129883
0.618995368480682373 4.79464483261108398 15.6262245178222656 0.254909634590148926 -0.00969060417264699936 0.966916322708129883
0.613698303699493408 4.69235849380493164 15.6265964508056641 0.254909634590148926 -0.00969060417264699936 0.966916322708129883
0.618295669555664062 4.50565814971923828 15.6226491928100586 0.254891276359558105 -0.0154196182265877724 0.966846764087677002
0.621277570724487305 4.4560246467590332 15.6210718154907227 0.254891276359558105 -0.0154196182265877724 0.966846764087677002
0.626279592514038086 4.60863733291625977 15.6221866607666016 0.254891276359558105 -0.0154196182265877724 0.966846764087677002
0.589446008205413818 4.54482078552246094 15.6308794021606445 0.254895627498626709 -0.0154188321903347969 0.96684563159942627
0.588710904121398926 4.41725063323974609 15.6290388107299805 0.254895627498626709 -0.0154188321903347969 0.96684563159942627
0.565578043460845947 5.34707975387573242 15.6441659927368164 0.231101870536804199 -0.00608899304643273354 0.972910523414611816
0.57315361499786377 5.25239229202270508 15.6417741775512695 0.231101870536804199 -0.00608899304643273354 0.972910523414611816
0.584653317928314209 5.19854879379272461 15.6387052536010742 0.231101870536804199 -0.00608899304643273354 0.972910523414611816
0.587043821811676025 5.44580221176147461 15.6396846771240234 0.231101870536804199 -0.00608899304643273354 0.972910523414611816
0.562334597110748291 5.40702056884765625 15.6453113555908203 0.231101870536804199 -0.00608899304643273354 0.972910523414611816
0.604990720748901367 5.36922359466552734 15.6345100402832031 0.254921168088912964 -0.00608898652717471123 0.966942667961120605
0.597518205642700195 5.15445089340209961 15.635127067565918 0.254921168088912964 -0.00608898652717471123 0.966942667961120605
0.624218642711639404 4.89342498779296875 15.6258382797241211 0.254913985729217529 -0.00968994572758674622 0.96691519021987915
0.59372866153717041 5.0198054313659668 15.6351423263549805 0.254913985729217529 -0.00968994572758674622 0.96691519021987915
0.669860959053039551 4.86846446990966797 15.6128959655761719 0.27853769063949585 -0.0096899690106511116 0.960376441478729248
0.661563694477081299 4.72282648086547852 15.6138324737548828 0.27853769063949585 -0.0096899690106511116 0.960376441478729248
0.686958909034729004 4.58879756927490234 15.604741096496582 0.278517663478851318 -0.0154179539531469345 0.96030735969543457
0.667519092559814453 4.64463376998901367 15.6112756729125977 0.278517663478851318 -0.0154179539531469345 0.96030735969543457
0.671367824077606201 4.50538873672485352 15.6079235076904297 0.278517663478851318 -0.0154179539531469345 0.96030735969543457
0.674638986587524414 4.42902994155883789 15.6057491302490234 0.278508663177490234 -0.0154195893555879593 0.960309922695159912
0.670857787132263184 4.36195230484008789 15.6057682037353516 0.278508663177490234 -0.0154195893555879593 0.960309922695159912
0.620533466339111328 5.28055667877197266 15.6298542022705078 0.254898160696029663 -0.00609204778447747231 0.96694868803024292
0.624502480030059814 5.49890041351318359 15.630183219909668 0.254898160696029663 -0.00609204778447747231 0.96694868803024292
0.666538119316101074 5.19600009918212891 15.6166410446166992 0.278530865907669067 -0.00609204079955816269 0.96040797233581543
0.654745638370513916 5.10599660873413086 15.6194906234741211 0.278530865907669067 -0.00609204079955816269 0.96040797233581543
0.658955037593841553 5.39885568618774414 15.6201267242431641 0.278530865907669067 -0.00609204079955816269 0.96040797233581543
0.699055016040802002 4.81292152404785156 15.6038684844970703 0.278522908687591553 -0.00969222374260425568 0.960380673408508301
0.670585095882415771 4.92844772338867188 15.6132907867431641 0.278522908687591553 -0.00969222374260425568 0.960380673408508301
0.659533917903900146 4.99469566345214844 15.6171646118164062 0.278522908687591553 -0.00969222374260425568 0.960380673408508301
0.577986359596252441 5.62197637557983398 15.6426849365234375 0.231101244688034058 -0.00370910018682479858 0.972922623157501221
0.588354647159576416 5.69753313064575195 15.6405096054077148 0.231101244688034058 -0.00370910018682479858 0.972922623157501221
0.579786062240600586 5.98015499114990234 15.6436223983764648 0.231101244688034058 -0.00370910018682479858 0.972922623157501221
0.541456043720245361 5.95486068725585938 15.6526308059692383 0.231101244688034058 -0.00370910018682479858 0.972922623157501221
0.537673413753509521 5.84929275512695312 15.6531267166137695 0.231104522943496704 -0.00370870577171444893 0.972921848297119141
0.542516112327575684 5.67640304565429688 15.6513175964355469 0.231104522943496704 -0.00370870577171444893 0.972921848297119141
0.539268255233764648 5.55585527420043945 15.6516294479370117 0.231104522943496704 -0.00370870577171444893 0.972921848297119141
0.54275214672088623 5.79230546951293945 15.651702880859375 0.231104522943496704 -0.00370870577171444893 0.972921848297119141
0.625847041606903076 5.65589809417724609 15.6304779052734375 0.25490117073059082 -0.00370906572788953781 0.966960012912750244
0.628520965576171875 5.5486149787902832 15.6293611526489258 0.25490117073059082 -0.00370906572788953781 0.966960012912750244
0.600850462913513184 5.76212120056152344 15.6374750137329102 0.25490117073059082 -0.00370906572788953781 0.966960012912750244
0.596020221710205078 5.88208436965942383 15.6392078399658203 0.25490117073059082 -0.00370906572788953781 0.966960012912750244
0.645279347896575928 5.88051891326904297 15.6262149810791016 0.254939675331115723 -0.00370441284030675888 0.966949880123138428
0.630157351493835449 6.00539541244506836 15.630681037902832 0.254939675331115723 -0.00370441284030675888 0.966949880123138428
0.626646518707275391 5.8016357421875 15.6308259963989258 0.254939675331115723 -0.00370441284030675888 0.966949880123138428
0.678637206554412842 5.52834129333496094 15.6152143478393555 0.278528749942779541 -0.0037044198252260685 0.960420727729797363
0.646686911582946777 5.92713737487792969 15.6260185241699219 0.278528749942779541 -0.0037044198252260685 0.960420727729797363
0.681196391582489014 5.60496330261230469 15.6147680282592773 0.278528749942779541 -0.0037044198252260685 0.960420727729797363
0.648616552352905273 5.71502590179443359 15.6246404647827148 0.278528749942779541 -0.0037044198252260685 0.960420727729797363
0.687744140625 5.24029302597045898 15.6107721328735352 0.27852553129196167 -0.00609275652095675468 0.96040952205657959
0.695759356021881104 5.30336189270019531 15.6088476181030273 0.27852553129196167 -0.00609275652095675468 0.96040952205657959
0.695188999176025391 5.14573764801025391 15.6080131530761719 0.27852553129196167 -0.00609275652095675468 0.96040952205657959
0.68259352445602417 5.35457372665405273 15.6129903793334961 0.27852553129196167 -0.00609275652095675468 0.96040952205657959
0.655776858329772949 5.45565414428710938 15.6214094161987305 0.27852553129196167 -0.00609275652095675468 0.96040952205657959
0.743717789649963379 5.13115072250366211 15.5927448272705078 0.301974385976791382 -0.00609278865158557892 0.953296542167663574
0.717880189418792725 5.05607414245605469 15.6004486083984375 0.301965862512588501 -0.0096934223547577858 0.953269481658935547
0.743492066860198975 4.99875068664550781 15.5917530059814453 0.301965862512588501 -0.0096934223547577858 0.953269481658935547
0.746205508708953857 4.6604156494140625 15.5874528884887695 0.301973730325698853 -0.00969221349805593491 0.95326697826385498
0.742834329605102539 4.72113990783691406 15.5891380310058594 0.301973730325698853 -0.00969221349805593491 0.95326697826385498
0.726018190383911133 4.76623868942260742 15.5949239730834961 0.301973730325698853 -0.00969221349805593491 0.95326697826385498
0.715445637702941895 4.9456181526184082 15.6000967025756836 0.301973730325698853 -0.00969221349805593491 0.95326697826385498
0.72102510929107666 4.85974979400634766 15.5974559783935547 0.301973730325698853 -0.00969221349805593491 0.95326697826385498
0.669966220855712891 5.9847407341003418 15.6194896697998047 0.278523087501525879 -0.00370511133223772049 0.960422396659851074
0.674641191959381104 5.82313966751098633 15.6175107955932617 0.278523087501525879 -0.00370511133223772049 0.960422396659851074
0.695509076118469238 5.72971487045288086 15.6110982894897461 0.278523087501525879 -0.00370511133223772049 0.960422396659851074
0.706548631191253662 5.95152664184570312 15.6086759567260742 0.301993578672409058 -0.00370509526692330837 0.953302741050720215
0.722161591053009033 5.84504604339599609 15.6033163070678711 0.301993578672409058 -0.00370509526692330837 0.953302741050720215
0.718323588371276855 5.57097816467285156 15.6034669876098633 0.301993578672409058 -0.00370509526692330837 0.953302741050720215
0.722583174705505371 5.79452276229858398 15.6029863357543945 0.301993578672409058 -0.00370509526692330837 0.953302741050720215
0.716816544532775879 5.49191188812255859 15.603571891784668 0.301990002393722534 -0.00609068106859922409 0.953291654586791992
0.75786978006362915 5.45870494842529297 15.5903549194335938 0.301990002393722534 -0.00609068106859922409 0.953291654586791992
0.745842218399047852 5.24056673049926758 15.5927715301513672 0.301990002393722534 -0.00609068106859922409 0.953291654586791992
0.716376841068267822 5.41981935501098633 15.6032505035400391 0.301990002393722534 -0.00609068106859922409 0.953291654586791992
0.755363941192626953 5.18605279922485352 15.5894069671630859 0.301990002393722534 -0.00609068106859922409 0.953291654586791992
0.756331264972686768 5.38538265228271484 15.5903739929199219 0.301990002393722534 -0.00609068106859922409 0.953291654586791992
0.643430233001708984 6.13527393341064453 15.627497673034668 0.254903852939605713 -0.00209403899498283863 0.966964125633239746
0.637428045272827148 6.256103515625 15.6293420791625977 0.254903852939605713 -0.00209403899498283863 0.966964125633239746
0.630416512489318848 6.46881437301635742 15.6316509246826172 0.254903852939605713 -0.00209403899498283863 0.966964125633239746
0.605467677116394043 6.51425504684448242 15.6383256912231445 0.254903852939605713 -0.00209403899498283863 0.966964125633239746
0.61291050910949707 6.42300796508789062 15.6361665725708008 0.254903852939605713 -0.00209403899498283863 0.966964125633239746
0.617676258087158203 6.30833053588867188 15.6346616744995117 0.254903852939605713 -0.00209403899498283863 0.966964125633239746
0.62203747034072876 6.36990785598754883 15.6336450576782227 0.254903852939605713 -0.00209403899498283863 0.966964125633239746
0.644062638282775879 6.07920169830322266 15.6272096633911133 0.254903852939605713 -0.00209403899498283863 0.966964125633239746
0.692775249481201172 6.1051487922668457 15.6132078170776367 0.278524398803710938 -0.00209402246400713921 0.960426867008209229
0.663677573204040527 6.34203815460205078 15.6221628189086914 0.278524398803710938 -0.00209402246400713921 0.960426867008209229
0.698617100715637207 6.02954339981079102 15.6113491058349609 0.278524398803710938 -0.00209402246400713921 0.960426867008209229
0.665822446346282959 6.40826654434204102 15.6216850280761719 0.278536140918731689 -0.00209269276820123196 0.960423469543457031
0.677301526069641113 6.46132278442382812 15.6184720993041992 0.278536140918731689 -0.00209269276820123196 0.960423469543457031
0.679547667503356934 6.51871347427368164 15.617945671081543 0.278536140918731689 -0.00209269276820123196 0.960423469543457031
0.693604826927185059 6.15624284744262695 15.6130790710449219 0.278536140918731689 -0.00209269276820123196 0.960423469543457031
0.690238833427429199 6.20504379272460938 15.614161491394043 0.278536140918731689 -0.00209269276820123196 0.960423469543457031
0.757305562496185303 6.02917337417602539 15.5928955078125 0.301986157894134521 -0.00209268811158835888 0.953310012817382812
0.722201526165008545 6.35950613021850586 15.6047401428222656 0.301986157894134521 -0.00209268811158835888 0.953310012817382812
0.726983249187469482 6.06764030456542969 15.6025848388671875 0.301986157894134521 -0.00209268811158835888 0.953310012817382812
0.749395549297332764 6.11956548690795898 15.5955991744995117 0.301986157894134521 -0.00209268811158835888 0.953310012817382812
0.736128747463226318 6.18034696578979492 15.5999355316162109 0.301986157894134521 -0.00209268811158835888 0.953310012817382812
0.721387743949890137 6.25060653686523438 15.6047592163085938 0.301986157894134521 -0.00209268811158835888 0.953310012817382812
0.740340232849121094 5.71787595748901367 15.5970630645751953 0.301984786987304688 -0.00370617397129535675 0.953305542469024658
0.736316025257110596 5.89718294143676758 15.5990352630615234 0.301984786987304688 -0.00370617397129535675 0.953305542469024658
0.748173654079437256 5.65138578414916992 15.5943231582641602 0.301984786987304688 -0.00370617397129535675 0.953305542469024658
0.800046741962432861 5.63155603408813477 15.576725959777832 0.325257182121276855 -0.00370614603161811829 0.945618331432342529
0.767328023910522461 5.81992006301879883 15.5887184143066406 0.325257182121276855 -0.00370614603161811829 0.945618331432342529
0.761028528213500977 5.94768285751342773 15.5913858413696289 0.325257182121276855 -0.00370614603161811829 0.945618331432342529
0.786231279373168945 5.53269624710083008 15.5810909271240234 0.325257182121276855 -0.00370614603161811829 0.945618331432342529
0.793063521385192871 5.4271092414855957 15.5780982971191406 0.325253397226333618 -0.00609288737177848816 0.945607244968414307
0.792831540107727051 5.32419824600219727 15.5775146484375 0.325253397226333618 -0.00609288737177848816 0.945607244968414307
0.792274594306945801 5.08371400833129883 15.5761566162109375 0.325269162654876709 -0.00609074300155043602 0.945601880550384521
0.782865703105926514 5.27310657501220703 15.5806131362915039 0.325269162654876709 -0.00609074300155043602 0.945601880550384521
0.717457294464111328 6.56121730804443359 15.6066856384277344 0.30201566219329834 -0.00208931788802146912 0.953300654888153076
0.730215668678283691 6.46428394317626953 15.6024312973022461 0.30201566219329834 -0.00208931788802146912 0.953300654888153076
0.734986662864685059 6.40899991989135742 15.6007986068725586 0.30201566219329834 -0.00208931788802146912 0.953300654888153076
0.760759472846984863 6.50339269638061523 15.5928401947021484 0.30201566219329834 -0.00208931788802146912 0.953300654888153076
0.749510884284973145 6.29214954376220703 15.5959415435791016 0.30201566219329834 -0.00208931788802146912 0.953300654888153076
0.791706442832946777 6.07498407363891602 15.5812501907348633 0.325274884700775146 -0.00208935211412608624 0.945617198944091797
0.770529985427856445 6.22892284393310547 15.5888748168945312 0.325274884700775146 -0.00208935211412608624 0.945617198944091797
0.801046013832092285 5.73190927505493164 15.5767755508422852 0.325273334980010986 -0.00370414974167943001 0.945612788200378418
0.794967114925384521 5.98151254653930664 15.5798444747924805 0.325273334980010986 -0.00370414974167943001 0.945612788200378418
0.791170120239257812 5.87627267837524414 15.5807380676269531 0.325273334980010986 -0.00370414974167943001 0.945612788200378418
0.696510016918182373 7.09280920028686523 15.6136960983276367 0.278532713651657104 -0.00101898564025759697 0.960426211357116699
0.685738086700439453 7.0420379638671875 15.6167659759521484 0.278532713651657104 -0.00101898564025759697 0.960426211357116699
0.683417916297912598 6.80773591995239258 15.6171903610229492 0.278532713651657104 -0.00101898564025759697 0.960426211357116699
0.691810309886932373 6.88332557678222656 15.6148366928100586 0.278532713651657104 -0.00101898564025759697 0.960426211357116699
0.697483599185943604 6.63686323165893555 15.6129302978515625 0.278536587953567505 -0.00101857050321996212 0.960425078868865967
0.6656150221824646 6.67913389205932617 15.6222171783447266 0.278536587953567505 -0.00101857050321996212 0.960425078868865967
0.649192929267883301 7.08219814300537109 15.6274070739746094 0.278536587953567505 -0.00101857050321996212 0.960425078868865967
0.676858782768249512 6.59075355529785156 15.6188631057739258 0.278536587953567505 -0.00101857050321996212 0.960425078868865967
0.682220876216888428 6.72591161727905273 15.6174507141113281 0.278536587953567505 -0.00101857050321996212 0.960425078868865967
0.661752998828887939 6.94737339019775391 15.623621940612793 0.278536587953567505 -0.00101857050321996212 0.960425078868865967
0.736213743686676025 6.67846775054931641 15.6008825302124023 0.302016198635101318 -0.00101898075081408024 0.953302264213562012
0.747068226337432861 6.61084318161010742 15.5973711013793945 0.302016198635101318 -0.00101898075081408024 0.953302264213562012
0.712696313858032227 6.95687437057495117 15.6086301803588867 0.302016198635101318 -0.00101898075081408024 0.953302264213562012
0.7406197190284729 7.10616397857666016 15.5999441146850586 0.302006691694259644 -0.00102001160848885775 0.953305244445800781
0.753566205501556396 7.02409172058105469 15.5957546234130859 0.302006691694259644 -0.00102001160848885775 0.953305244445800781
0.748598754405975342 6.8212885856628418 15.597111701965332 0.302006691694259644 -0.00102001160848885775 0.953305244445800781
0.793211817741394043 6.78370285034179688 15.5820608139038086 0.325264871120452881 -0.00102001265622675419 0.945622384548187256
0.765322625637054443 6.74047183990478516 15.5916070938110352 0.325264871120452881 -0.00102001265622675419 0.945622384548187256
0.778576672077178955 6.66507053375244141 15.5869665145874023 0.325264871120452881 -0.00102001265622675419 0.945622384548187256
0.766062080860137939 6.91029167175292969 15.5915355682373047 0.325264871120452881 -0.00102001265622675419 0.945622384548187256
0.803578853607177734 6.47687721252441406 15.5780544281005859 0.32526436448097229 -0.00209056353196501732 0.945620834827423096
0.769817590713500977 6.56324243545532227 15.5898580551147461 0.32526436448097229 -0.00209056353196501732 0.945620834827423096
0.810638606548309326 6.28423929214477539 15.575200080871582 0.32526436448097229 -0.00209056353196501732 0.945620834827423096
0.787009894847869873 6.34431791305541992 15.583460807800293 0.32526436448097229 -0.00209056353196501732 0.945620834827423096
0.779355287551879883 6.43330812454223633 15.5862903594970703 0.32526436448097229 -0.00209056353196501732 0.945620834827423096
0.813544869422912598 6.17591667175292969 15.5739612579345703 0.32526436448097229 -0.00209056353196501732 0.945620834827423096
0.815561056137084961 6.40201377868652344 15.5737676620483398 0.32526436448097229 -0.00209056353196501732 0.945620834827423096
0.829571127891540527 6.04392623901367188 15.5678033828735352 0.34833875298500061 -0.00209061312489211559 0.937366366386413574
0.838885486125946045 6.10121870040893555 15.5644693374633789 0.34833875298500061 -0.00209061312489211559 0.937366366386413574
0.86145704984664917 5.62022113800048828 15.5543069839477539 0.348337143659591675 -0.00370793999172747135 0.937361955642700195
0.86400073766708374 5.79128122329711914 15.5540390014648438 0.348337143659591675 -0.00370793999172747135 0.937361955642700195
0.857891976833343506 5.84524774551391602 15.5565223693847656 0.348337143659591675 -0.00370793999172747135 0.937361955642700195
0.861478447914123535 5.90930557250976562 15.5554428100585938 0.348337143659591675 -0.00370793999172747135 0.937361955642700195
0.83514106273651123 5.95197391510009766 15.565399169921875 0.348337143659591675 -0.00370793999172747135 0.937361955642700195
0.840869545936584473 5.53506326675415039 15.5616226196289062 0.348367542028427124 -0.00370415090583264828 0.937350690364837646
0.817784488201141357 5.77721691131591797 15.5711584091186523 0.348367542028427124 -0.00370415090583264828 0.937350690364837646
0.816793441772460938 5.67891788482666016 15.5711383819580078 0.348367542028427124 -0.00370415090583264828 0.937350690364837646
0.815008342266082764 6.92128944396972656 15.5747127532958984 0.32524070143699646 -0.00102265924215316772 0.945630729198455811
0.79195326566696167 6.83411407470703125 15.5825481414794922 0.32524070143699646 -0.00102265924215316772 0.945630729198455811
0.789885938167572021 7.12955999374389648 15.5835781097412109 0.32524070143699646 -0.00102265924215316772 0.945630729198455811
0.778908789157867432 7.0713801383972168 15.5872907638549805 0.32524070143699646 -0.00102265924215316772 0.945630729198455811
0.832169175148010254 6.97257423400878906 15.5684537887573242 0.348357141017913818 -0.00102261023130267859 0.937361299991607666
0.846842944622039795 6.83668899536132812 15.5628519058227539 0.348357141017913818 -0.00102261023130267859 0.937361299991607666
0.82317960262298584 6.60325717926025391 15.5713920593261719 0.348357141017913818 -0.00102261023130267859 0.937361299991607666
0.824548184871673584 6.74198293685913086 15.5710344314575195 0.348357141017913818 -0.00102261023130267859 0.937361299991607666
0.837961435317993164 6.67434120178222656 15.5659761428833008 0.348357141017913818 -0.00102261023130267859 0.937361299991607666
0.842775881290435791 6.56131315231323242 15.5640497207641602 0.348356544971466064 -0.0020885467529296875 0.937359750270843506
0.845764756202697754 6.36599254608154297 15.5625038146972656 0.348356544971466064 -0.0020885467529296875 0.937359750270843506
0.862053632736206055 6.20593881607055664 15.5560932159423828 0.348356544971466064 -0.0020885467529296875 0.937359750270843506
0.86724776029586792 6.42171001434326172 15.5546436309814453 0.348356544971466064 -0.0020885467529296875 0.937359750270843506
0.760467290878295898 7.52962684631347656 15.5938482284545898 0.301997184753417969 -0.00036676498712040484 0.953308761119842529
0.745378434658050537 7.67467021942138672 15.5986843109130859 0.301997184753417969 -0.00036676498712040484 0.953308761119842529
0.757046818733215332 7.72483015060424805 15.5950069427490234 0.301997184753417969 -0.00036676498712040484 0.953308761119842529
0.708633661270141602 7.64213991165161133 15.6103115081787109 0.302006840705871582 -0.000365750398486852646 0.953305661678314209
0.750211238861083984 7.15522050857543945 15.5969533920288086 0.302006840705871582 -0.000365750398486852646 0.953305661678314209
0.74166560173034668 7.27321815490722656 15.599705696105957 0.302006840705871582 -0.000365750398486852646 0.953305661678314209
0.714643776416778564 7.50877904891967773 15.6083564758300781 0.302006840705871582 -0.000365750398486852646 0.953305661678314209
0.716454982757568359 7.40271949768066406 15.6077423095703125 0.302006840705871582 -0.000365750398486852646 0.953305661678314209
0.768223941326141357 7.4141840934753418 15.5911521911621094 0.325240850448608398 -0.000366751366527751088 0.945631146430969238
0.811571776866912842 7.1910400390625 15.5761566162109375 0.325240850448608398 -0.000366751366527751088 0.945631146430969238
0.767365872859954834 7.20551061630249023 15.5913667678833008 0.325240850448608398 -0.000366751366527751088 0.945631146430969238
0.770799934864044189 7.46603012084960938 15.5902862548828125 0.325240850448608398 -0.000366751366527751088 0.945631146430969238
0.776956081390380859 7.3207240104675293 15.5881128311157227 0.325240850448608398 -0.000366751366527751088 0.945631146430969238
0.787907183170318604 7.62605476379394531 15.5844640731811523 0.325257956981658936 -0.000364938518032431602 0.945625245571136475
0.794907689094543457 7.56741142272949219 15.5820341110229492 0.325257956981658936 -0.000364938518032431602 0.945625245571136475
0.828709661960601807 7.42553472518920898 15.5700387954711914 0.348373442888259888 -0.000364938663551583886 0.937355756759643555
0.821641445159912109 7.24762439727783203 15.572596549987793 0.348373442888259888 -0.000364938663551583886 0.937355756759643555
0.860507309436798096 7.15803241729736328 15.5581169128417969 0.348373442888259888 -0.000364938663551583886 0.937355756759643555
0.836354494094848633 7.47578048706054688 15.5672168731689453 0.348373442888259888 -0.000364938663551583886 0.937355756759643555
0.854218363761901855 7.31963300704956055 15.5605173110961914 0.348373442888259888 -0.000364938663551583886 0.937355756759643555
0.8415566086769104 7.06606435775756836 15.5650663375854492 0.348373293876647949 -0.00102082767989486456 0.937355339527130127
0.859820246696472168 6.92405986785888672 15.5581245422363281 0.348373293876647949 -0.00102082767989486456 0.937355339527130127
0.858742654323577881 6.77196025848388672 15.5583591461181641 0.348373293876647949 -0.00102082767989486456 0.937355339527130127
0.86052781343460083 7.02038049697875977 15.5579662322998047 0.348373293876647949 -0.00102082767989486456 0.937355339527130127
0.891760528087615967 6.65032672882080078 15.5454263687133789 0.37125203013420105 -0.00102086318656802177 0.92853158712387085
0.888870894908905029 6.7113041877746582 15.5466489791870117 0.37125203013420105 -0.00102086318656802177 0.92853158712387085
0.891730427742004395 6.60010337829589844 15.5453834533691406 0.37125203013420105 -0.00102086318656802177 0.92853158712387085
0.906463265419006348 6.77213144302368164 15.5396814346313477 0.37125203013420105 -0.00102086318656802177 0.92853158712387085
0.881527841091156006 6.97178173065185547 15.549870491027832 0.37125203013420105 -0.00102086318656802177 0.92853158712387085
0.893856346607208252 6.83289957046508789 15.5447893142700195 0.37125203013420105 -0.00102086318656802177 0.92853158712387085
0.919359743595123291 6.41791820526123047 15.5339565277099609 0.371251434087753296 -0.0020932760089635849 0.928530037403106689
0.915046811103820801 6.54505062103271484 15.5359668731689453 0.371251434087753296 -0.0020932760089635849 0.928530037403106689
0.903979003429412842 6.2862095832824707 15.5398092269897461 0.371251434087753296 -0.0020932760089635849 0.928530037403106689
0.885969460010528564 6.49326801300048828 15.5474767684936523 0.371251434087753296 -0.0020932760089635849 0.928530037403106689
0.890712857246398926 6.10361003875732422 15.5447025299072266 0.37129172682762146 -0.00208855164237320423 0.928513884544372559
0.902432441711425781 6.23412322998046875 15.5403099060058594 0.37129172682762146 -0.00208855164237320423 0.928513884544372559
0.897756278514862061 6.17137289047241211 15.5420389175415039 0.37129172682762146 -0.00208855164237320423 0.928513884544372559
0.881299614906311035 6.33180809020996094 15.548980712890625 0.37129172682762146 -0.00208855164237320423 0.928513884544372559
0.885793864727020264 6.05312013626098633 15.5465564727783203 0.37129172682762146 -0.00208855164237320423 0.928513884544372559
0.833046376705169678 7.63690853118896484 15.5685091018676758 0.348374158143997192 -0.000364864623406901956 0.937355518341064453
0.853879690170288086 7.3754124641418457 15.5606651306152344 0.348374158143997192 -0.000364864623406901956 0.937355518341064453
0.870023012161254883 7.54245138168334961 15.5547304153442383 0.348374158143997192 -0.000364864623406901956 0.937355518341064453
0.833246350288391113 7.69100475311279297 15.568455696105957 0.348374158143997192 -0.000364864623406901956 0.937355518341064453
0.868458151817321777 7.22259664535522461 15.5551872253417969 0.348374158143997192 -0.000364864623406901956 0.937355518341064453
0.919088482856750488 7.19430398941040039 15.5350637435913086 0.371287435293197632 -0.000364866282325237989 0.92851787805557251
0.89985358715057373 7.29152202606201172 15.5427932739257812 0.371287435293197632 -0.000364866282325237989 0.92851787805557251
0.902288258075714111 7.05792665481567383 15.5416641235351562 0.371287286281585693 -0.00101693312171846628 0.928517460823059082
0.779902637004852295 8.26630687713623047 15.5872907638549805 0.325262129306793213 -5.07522236148361117e-05 0.945623874664306641
0.762753784656524658 8.32951641082763672 15.5931930541992188 0.325262129306793213 -5.07522236148361117e-05 0.945623874664306641
0.786247909069061279 8.10120773315429688 15.5850992202758789 0.325262129306793213 -5.07522236148361117e-05 0.945623874664306641
0.801520764827728271 7.95941686630249023 15.579838752746582 0.325262129306793213 -5.07522236148361117e-05 0.945623874664306641
0.790720343589782715 8.20818042755126953 15.5835666656494141 0.325262129306793213 -5.07522236148361117e-05 0.945623874664306641
0.771564006805419922 7.92293739318847656 15.5901403427124023 0.325257986783981323 -5.11865364387631416e-05 0.94562530517578125
0.771055817604064941 8.05695724487304688 15.5903224945068359 0.325257986783981323 -5.11865364387631416e-05 0.94562530517578125
0.774504363536834717 7.77443742752075195 15.5891208648681641 0.325257986783981323 -5.11865364387631416e-05 0.94562530517578125
0.815896749496459961 7.75760650634765625 15.5748825073242188 0.325257986783981323 -5.11865364387631416e-05 0.94562530517578125
0.767665982246398926 7.85117864608764648 15.5914773941040039 0.325257986783981323 -5.11865364387631416e-05 0.94562530517578125
0.774391233921051025 8.15163421630859375 15.5891799926757812 0.325257986783981323 -5.11865364387631416e-05 0.94562530517578125
0.80867612361907959 7.83245706558227539 15.5773706436157227 0.325257986783981323 -5.11865364387631416e-05 0.94562530517578125
0.867311775684356689 7.74890851974487305 15.5558156967163086 0.348374158143997192 -5.07802615175023675e-05 0.937355577945709229
0.850054681301116943 7.98265600204467773 15.5622425079345703 0.348374158143997192 -5.07802615175023675e-05 0.937355577945709229
0.828830897808074951 8.17370223999023438 15.5701408386230469 0.348374158143997192 -5.07802615175023675e-05 0.937355577945709229
0.846834719181060791 7.92639970779418945 15.5634355545043945 0.348374158143997192 -5.07802615175023675e-05 0.937355577945709229
0.81751781702041626 8.34365081787109375 15.5743541717529297 0.348374158143997192 -5.07802615175023675e-05 0.937355577945709229
0.842480301856994629 7.87294721603393555 15.5650510787963867 0.348374158143997192 -5.07802615175023675e-05 0.937355577945709229
0.839770376682281494 8.29633617401123047 15.5660820007324219 0.3483600914478302 -5.22618574905209243e-05 0.937360763549804688
0.844935476779937744 8.07444381713867188 15.5641498565673828 0.3483600914478302 -5.22618574905209243e-05 0.937360763549804688
0.872016966342926025 8.19501399993896484 15.5540914535522461 0.3483600914478302 -5.22618574905209243e-05 0.937360763549804688
0.85822981595993042 8.12616443634033203 15.5592117309570312 0.3483600914478302 -5.22618574905209243e-05 0.937360763549804688
0.900057613849639893 7.89301586151123047 15.5428972244262695 0.371272623538970947 -5.2245341066736728e-05 0.928523898124694824
0.876098692417144775 7.79505300521850586 15.5524721145629883 0.371272623538970947 -5.2245341066736728e-05 0.928523898124694824
0.893199265003204346 8.09337234497070312 15.5456514358520508 0.371272623538970947 -5.2245341066736728e-05 0.928523898124694824
0.87328416109085083 8.24915695190429688 15.5536231994628906 0.371272623538970947 -5.2245341066736728e-05 0.928523898124694824
0.901676058769226074 7.99398565292358398 15.5422563552856445 0.371272623538970947 -5.2245341066736728e-05 0.928523898124694824
0.906070530414581299 7.42449235916137695 15.5403594970703125 0.37127259373664856 -0.00036646862281486392 0.928523838520050049
0.906295180320739746 7.71865320205688477 15.5403852462768555 0.37127259373664856 -0.00036646862281486392 0.928523838520050049
0.884668290615081787 7.64990997314453125 15.549006462097168 0.37127259373664856 -0.00036646862281486392 0.928523838520050049
0.889634311199188232 7.58414888381958008 15.5469942092895508 0.37127259373664856 -0.00036646862281486392 0.928523838520050049
0.906242609024047852 7.4987788200378418 15.5403194427490234 0.37127259373664856 -0.00036646862281486392 0.928523838520050049
0.951722383499145508 7.05200576782226562 15.5212173461914062 0.394024789333343506 -0.00102132034953683615 0.919099271297454834
0.979875624179840088 7.1127171516418457 15.5092153549194336 0.394024789333343506 -0.00102132034953683615 0.919099271297454834
0.980081737041473389 6.80290985107421875 15.5087833404541016 0.394024789333343506 -0.00102132034953683615 0.919099271297454834
0.942666769027709961 6.64389753341674805 15.5246477127075195 0.394063234329223633 -0.00101698888465762138 0.919082760810852051
0.940858900547027588 6.73561000823974609 15.5255250930786133 0.394063234329223633 -0.00101698888465762138 0.919082760810852051
0.928927004337310791 7.00673723220825195 15.5309410095214844 0.394063234329223633 -0.00101698888465762138 0.919082760810852051
0.942364752292633057 6.89428138732910156 15.525054931640625 0.394063234329223633 -0.00101698888465762138 0.919082760810852051
0.929772555828094482 7.09660482406616211 15.5306777954101562 0.394063234329223633 -0.00101698888465762138 0.919082760810852051
0.938545346260070801 7.54597616195678711 15.5271320343017578 0.394024968147277832 -0.00036645410000346601 0.919099688529968262
0.940745234489440918 7.36594629287719727 15.5261173248291016 0.394024968147277832 -0.00036645410000346601 0.919099688529968262
0.954600989818572998 7.1554107666015625 15.5200939178466797 0.394024968147277832 -0.00036645410000346601 0.919099688529968262
0.939234018325805664 7.59818220138549805 15.5268583297729492 0.394024968147277832 -0.00036645410000346601 0.919099688529968262
0.966455757617950439 7.26017141342163086 15.5150527954101562 0.394024968147277832 -0.00036645410000346601 0.919099688529968262
0.953577339649200439 7.82902669906616211 15.5207710266113281 0.394034773111343384 -4.99923080496955663e-05 0.919095516204833984
0.939087510108947754 7.97325420379638672 15.5269908905029297 0.394034773111343384 -4.99923080496955663e-05 0.919095516204833984
0.935244143009185791 7.75382280349731445 15.5286264419555664 0.394034773111343384 -4.99923080496955663e-05 0.919095516204833984
0.956908464431762695 7.92285013198852539 15.51934814453125 0.394034773111343384 -4.99923080496955663e-05 0.919095516204833984
0.93819880485534668 8.22547245025634766 15.5273857116699219 0.394034773111343384 -4.99923080496955663e-05 0.919095516204833984
0.981495141983032227 7.4901885986328125 15.5086965560913086 0.394034743309020996 -0.000365387240890413523 0.919095456600189209
0.907695174217224121 8.34457969665527344 15.5398683547973633 0.371294021606445312 -4.99702946399338543e-05 0.928515315055847168
0.900459587574005127 8.14374351501464844 15.542750358581543 0.371294021606445312 -4.99702946399338543e-05 0.928515315055847168
0.925296366214752197 8.04224872589111328 15.5328130722045898 0.371294021606445312 -4.99702946399338543e-05 0.928515315055847168
0.908437013626098633 8.2810211181640625 15.5395679473876953 0.371294021606445312 -4.99702946399338543e-05 0.928515315055847168
1.01824283599853516 7.19864606857299805 15.4917964935302734 0.416480273008346558 -0.000365390849765390158 0.909144699573516846
0.992713391780853271 7.36461973190307617 15.5035581588745117 0.416480273008346558 -0.000365390849765390158 0.909144699573516846
1.02557373046875 7.2638401985168457 15.48846435546875 0.416480273008346558 -0.000365390849765390158 0.909144699573516846
0.991524457931518555 7.57313060760498047 15.5041866302490234 0.416480273008346558 -0.000365390849765390158 0.909144699573516846
0.98743748664855957 7.63095378875732422 15.5060825347900391 0.416480273008346558 -0.000365390849765390158 0.909144699573516846
1.01086974143981934 7.41950750350952148 15.4952630996704102 0.416480273008346558 -0.000365390849765390158 0.909144699573516846
0.989485323429107666 7.31459665298461914 15.5050172805786133 0.416480273008346558 -0.000365390849765390158 0.909144699573516846
1.02075517177581787 7.1359405517578125 15.4906120300292969 0.416480094194412231 -0.00101871101651340723 0.909144282341003418
1.00040614604949951 7.06859302520751953 15.4998579025268555 0.416480094194412231 -0.00101871101651340723 0.909144282341003418
1.03236162662506104 6.71053218841552734 15.4848175048828125 0.416480094194412231 -0.00101871101651340723 0.909144282341003418
1.01687014102935791 6.98410606384277344 15.4922208786010742 0.416480094194412231 -0.00101871101651340723 0.909144282341003418
0.985509753227233887 6.95366811752319336 15.5065526962280273 0.416457176208496094 -0.00102131953462958336 0.909154772758483887
0.9951629638671875 6.65533542633056641 15.501795768737793 0.416457176208496094 -0.00102131953462958336 0.909154772758483887
1.00184845924377441 6.58107662200927734 15.4986495971679688 0.416457176208496094 -0.00102131953462958336 0.909154772758483887
0.992938697338104248 6.75503110885620117 15.5029268264770508 0.416457176208496094 -0.00102131953462958336 0.909154772758483887
0.992352902889251709 6.8648681640625 15.5033187866210938 0.416457176208496094 -0.00102131953462958336 0.909154772758483887
1.01791369915008545 6.45999431610107422 15.4910211563110352 0.416456520557403564 -0.0020934566855430603 0.909153223037719727
1.00626552104949951 6.52917242050170898 15.496516227722168 0.416456520557403564 -0.0020934566855430603 0.909153223037719727
0.999774515628814697 6.40998125076293945 15.4992151260375977 0.416456520557403564 -0.0020934566855430603 0.909153223037719727
1.03348922729492188 6.22320747375488281 15.4833412170410156 0.416456520557403564 -0.0020934566855430603 0.909153223037719727
1.01617705821990967 6.11525487899780273 15.4910240173339844 0.416502952575683594 -0.0020878936629742384 0.909131944179534912
0.988043248653411865 6.29589128494262695 15.5043277740478516 0.416502952575683594 -0.0020878936629742384 0.909131944179534912
0.99022829532623291 6.20751953125 15.5031232833862305 0.416502952575683594 -0.0020878936629742384 0.909131944179534912
0.957377910614013672 6.34781217575073242 15.5177497863769531 0.394062548875808716 -0.00208787829615175724 0.919081270694732666
0.968232691287994385 6.50004053115844727 15.5134420394897461 0.394062548875808716 -0.00208787829615175724 0.919081270694732666
1.04520857334136963 7.05866813659667969 15.4790849685668945 0.438665777444839478 -0.00101873732637614012 0.898649692535400391
1.06997799873352051 6.6821293830871582 15.4665670394897461 0.438665777444839478 -0.00101873732637614012 0.898649692535400391
1.05441486835479736 6.92281913757324219 15.4744367599487305 0.438665777444839478 -0.00101873732637614012 0.898649692535400391
1.04361581802368164 6.85700654983520508 15.4796333312988281 0.438665777444839478 -0.00101873732637614012 0.898649692535400391
1.05885958671569824 6.75628232955932617 15.4720783233642578 0.438665777444839478 -0.00101873732637614012 0.898649692535400391
1.06482160091400146 6.62104558944702148 15.4690141677856445 0.438665777444839478 -0.00101873732637614012 0.898649692535400391
1.06227850914001465 6.5412139892578125 15.4701271057128906 0.438665032386779785 -0.00209472118876874447 0.898648202419281006
1.06879258155822754 6.35068035125732422 15.4665031433105469 0.438665032386779785 -0.00209472118876874447 0.898648202419281006
1.06957674026489258 6.40760469436645508 15.4662532806396484 0.438665032386779785 -0.00209472118876874447 0.898648202419281006
1.06198990345001221 6.47107124328613281 15.4701042175292969 0.438665032386779785 -0.00209472118876874447 0.898648202419281006
1.07583129405975342 6.14881992340087891 15.4625968933105469 0.438675612211227417 -0.00209343782626092434 0.898643016815185547
1.0848771333694458 6.03797531127929688 15.4579229354858398 0.438675612211227417 -0.00209343782626092434 0.898643016815185547
1.05568313598632812 6.10020732879638672 15.4723186492919922 0.438675612211227417 -0.00209343782626092434 0.898643016815185547
1.06490051746368408 6.25947093963623047 15.4681901931762695 0.438675612211227417 -0.00209343782626092434 0.898643016815185547
1.04324078559875488 6.30048608779907227 15.4788589477539062 0.438675612211227417 -0.00209343782626092434 0.898643016815185547
1.03464615345001221 5.91907358169555664 15.4819202423095703 0.416500985622406006 -0.00370291457511484623 0.909127712249755859
1.00531005859375 6.01904773712158203 15.4957675933837891 0.416500985622406006 -0.00370291457511484623 0.909127712249755859
1.00493431091308594 5.86056232452392578 15.4952945709228516 0.416500985622406006 -0.00370291457511484623 0.909127712249755859
1.05351579189300537 5.99939441680908203 15.4730930328369141 0.438673585653305054 -0.00370382005348801613 0.89863884449005127
1.08523261547088623 5.92233467102050781 15.4572925567626953 0.438673585653305054 -0.00370382005348801613 0.89863884449005127
1.06915390491485596 5.86537933349609375 15.4649066925048828 0.438673585653305054 -0.00370382005348801613 0.89863884449005127
1.05024409294128418 5.60024023056030273 15.4730453491210938 0.438680469989776611 -0.00370292458683252335 0.898635506629943848
1.03630483150482178 5.69212484359741211 15.4802284240722656 0.438680469989776611 -0.00370292458683252335 0.898635506629943848
1.04305720329284668 5.79340076446533203 15.4773492813110352 0.438680469989776611 -0.00370292458683252335 0.898635506629943848
1.07404744625091553 5.65331935882568359 15.461644172668457 0.438680469989776611 -0.00370292458683252335 0.898635506629943848
0.998002946376800537 5.81562185287475586 15.498286247253418 0.416489928960800171 -0.00370433623902499676 0.909132778644561768
1.01090455055236816 5.74442434310913086 15.4920854568481445 0.416489928960800171 -0.00370433623902499676 0.909132778644561768
1.01067328453063965 5.63941717147827148 15.4917640686035156 0.416489928960800171 -0.00370433623902499676 0.909132778644561768
0.986427605152130127 5.917236328125 15.5040035247802734 0.416489928960800171 -0.00370433623902499676 0.909132778644561768
0.95412898063659668 6.00136375427246094 15.5183095932006836 0.39401555061340332 -0.00370433507487177849 0.919096291065216064
0.96724313497543335 5.75435733795166016 15.5116920471191406 0.39401555061340332 -0.00370433507487177849 0.919096291065216064
0.978827118873596191 5.55670166015625 15.5059299468994141 0.39401555061340332 -0.00370433507487177849 0.919096291065216064
0.929162204265594482 6.46941614151000977 15.5301237106323242 0.39401736855506897 -0.00209323270246386528 0.919100642204284668
0.957187414169311523 6.25034093856811523 15.5176105499267578 0.39401736855506897 -0.00209323270246386528 0.919100642204284668
0.967602252960205078 6.13193130493164062 15.5128755569458008 0.39401736855506897 -0.00209323270246386528 0.919100642204284668
0.966013252735137939 6.08009672164916992 15.5134391784667969 0.39401736855506897 -0.00209323270246386528 0.919100642204284668
1.02622056007385254 5.44365453720092773 15.4836492538452148 0.416485100984573364 -0.00608850829303264618 0.909122169017791748
0.999009549617767334 5.38918304443359375 15.4957504272460938 0.416485100984573364 -0.00608850829303264618 0.909122169017791748
1.02592551708221436 5.27743196487426758 15.482670783996582 0.416485100984573364 -0.00608850829303264618 0.909122169017791748
1.02929675579071045 5.15351152420043945 15.4802970886230469 0.416485100984573364 -0.00608850829303264618 0.909122169017791748
1.02481305599212646 5.5012969970703125 15.48468017578125 0.416485100984573364 -0.00608850829303264618 0.909122169017791748
1.06188428401947021 5.47971057891845703 15.4667644500732422 0.43867531418800354 -0.00608618371188640594 0.898625016212463379
1.08835351467132568 5.26514387130737305 15.4523906707763672 0.43867531418800354 -0.00608618371188640594 0.898625016212463379
1.06084418296813965 5.33467864990234375 15.4662904739379883 0.43867531418800354 -0.00608618371188640594 0.898625016212463379
