ply
format ascii 1.0
element vertex 703
property float x
property float y
property float z
property float nx
property float ny
property float nz
end_header
3.8279273509979248 4.27288579940795898 0.906548857688903809 0 1 -0
3.6401219367980957 4.27288579940795898 -0.0265413634479045868 0 1 -0
3.51201510429382324 4.27288579940795898 -0.0201591551303863525 0 1 -0
3.80101609230041504 4.27288579940795898 0.728060305118560791 0 1 -0
3.52761483192443848 4.27288579940795898 -0.456024825572967529 0 1 -0
3.64043021202087402 4.27288579940795898 0.102946549654006958 0 1 -0
3.66540169715881348 4.27288579940795898 0.562308371067047119 0 1 -0
3.4321906566619873 4.27288579940795898 -0.478927344083786011 0 1 -0
3.47860527038574219 4.27288579940795898 0.0785360634326934814 0 1 -0
3.43335270881652832 4.27288579940795898 0.523519992828369141 0 1 -0
3.63952922821044922 4.27288579940795898 0.213863536715507507 0 1 -0
3.5087893009185791 4.27288579940795898 0.56698918342590332 0 1 -0
3.447418212890625 4.27288579940795898 -0.393342375755310059 0 1 -0
3.55581927299499512 4.27288579940795898 -0.352814435958862305 0 1 -0
3.41990280151367188 4.27288579940795898 0.736175835132598877 0 1 -0
3.42641520500183105 4.27288579940795898 -0.843103408813476562 0 1 -0
3.57571959495544434 4.27288579940795898 0.904308438301086426 0 1 -0
3.69596672058105469 4.27288579940795898 0.947467803955078125 0 1 -0
3.65305566787719727 4.27288579940795898 0.673410415649414062 0 1 -0
3.62099695205688477 4.27288579940795898 0.870209455490112305 0 1 -0
3.71734809875488281 4.27288579940795898 0.370747566223144531 0 1 -0
3.59540843963623047 4.27288579940795898 0.252442747354507446 0 1 -0
3.5360405445098877 4.27288579940795898 1.76216804981231689 0 1 -0
3.43587708473205566 4.27288579940795898 1.67444634437561035 0 1 -0
3.73406457901000977 4.27288579940795898 1.7624053955078125 0 1 -0
3.58573746681213379 4.27288579940795898 1.75247251987457275 0 1 -0
3.45497751235961914 4.27288579940795898 1.41512560844421387 0 1 -0
3.5017542839050293 4.27288579940795898 1.32246339321136475 0 1 -0
3.77077198028564453 4.27288579940795898 1.79395163059234619 0 1 -0
3.59899187088012695 4.27288579940795898 1.92980682849884033 0 1 -0
3.6519622802734375 4.27288579940795898 1.64400660991668701 0 1 -0
3.65367674827575684 4.27288579940795898 1.73932766914367676 0 1 -0
3.53184366226196289 4.27288579940795898 1.27076816558837891 0 1 -0
3.86113214492797852 4.27288579940795898 1.89717483520507812 0 1 -0
3.41725420951843262 4.27288579940795898 1.77548801898956299 0 1 -0
3.44571542739868164 4.27288579940795898 1.17914962768554688 0 1 -0
3.62526464462280273 4.27288579940795898 1.55139899253845215 0 1 -0
3.54132699966430664 4.27288579940795898 1.46808886528015137 0 1 -0
3.62196040153503418 4.27288579940795898 1.78785550594329834 0 1 -0
3.5513913631439209 4.27288579940795898 1.62553846836090088 0 1 -0
3.4605553150177002 4.27288579940795898 1.35772299766540527 0 1 -0
3.58450579643249512 4.27288579940795898 1.59289693832397461 0 1 -0
3.68732404708862305 4.27288579940795898 1.69565808773040771 0 1 -0
3.59067440032958984 4.27288579940795898 1.35118377208709717 0 1 -0
3.63433694839477539 4.27288579940795898 1.4963231086730957 0 1 -0
3.46784210205078125 4.27288579940795898 1.77588570117950439 0 1 -0
3.4398953914642334 4.27288579940795898 1.82526636123657227 0 1 -0
3.54823160171508789 4.27288579940795898 1.86861848831176758 0 1 -0
3.8033595085144043 4.27288579940795898 1.90637516975402832 0 1 -0
3.71004247665405273 4.27288579940795898 1.93575835227966309 0 1 -0
3.65511298179626465 4.27288579940795898 1.93629419803619385 0 1 -0
3.6932981014251709 4.27288579940795898 1.55506002902984619 0 1 -0
3.57639575004577637 4.27288579940795898 1.50625872611999512 0 1 -0
3.55379295349121094 4.27288579940795898 1.7117084264755249 0 1 -0
3.5539863109588623 4.27288579940795898 1.81533718109130859 0 1 -0
3.42424297332763672 4.27288579940795898 1.47120177745819092 0 1 -0
3.588226318359375 4.27288579940795898 1.66945993900299072 0 1 -0
3.59061670303344727 4.27288579940795898 1.44304895401000977 0 1 -0
3.48515605926513672 4.27288579940795898 1.71627545356750488 0 1 -0
3.69737672805786133 4.27288579940795898 1.60767078399658203 0 1 -0
3.67710995674133301 4.27288579940795898 1.85447072982788086 0 1 -0
3.4811854362487793 4.27288579940795898 1.21152019500732422 0 1 -0
3.48782038688659668 4.27288579940795898 1.65716040134429932 0 1 -0
3.50565338134765625 4.27288579940795898 1.57478237152099609 0 1 -0
3.45390748977661133 4.27288579940795898 1.57126843929290771 0 1 -0
3.47235798835754395 4.27288579940795898 1.88284766674041748 0 1 -0
3.6367805004119873 4.27288579940795898 1.68882977962493896 0 1 -0
3.55506420135498047 4.27288579940795898 1.39253973960876465 0 1 -0
3.48950529098510742 4.27288579940795898 1.45473778247833252 0 1 -0
3.59567022323608398 4.27288579940795898 1.84830892086029053 0 1 -0
3.47138214111328125 4.27288579940795898 1.27130842208862305 0 1 -0
3.75461435317993164 4.27288579940795898 1.86202263832092285 0 1 -0
3.50513172149658203 4.27288579940795898 1.83855438232421875 0 1 -0
3.5241091251373291 4.27288579940795898 1.52187061309814453 0 1 -0
3.72215366363525391 4.27288579940795898 1.66346871852874756 0 1 -0
3.72710394859313965 4.27288579940795898 1.45174801349639893 -0 1 0
3.68326568603515625 4.27288579940795898 1.21227371692657471 -0 1 0
3.67294549942016602 4.27288579940795898 1.29006397724151611 -0 1 0
3.89755606651306152 4.27288579940795898 1.27305388450622559 -0 1 0
3.63823175430297852 4.27288579940795898 1.41733300685882568 -0 1 0
3.79394888877868652 4.27288579940795898 1.47941029071807861 -0 1 0
3.79511022567749023 4.27288579940795898 1.39223289489746094 -0 1 0
3.56946945190429688 4.27288579940795898 1.12105238437652588 -0 1 0
3.84305524826049805 4.27288579940795898 1.56535935401916504 -0 1 0
3.8553466796875 4.27288579940795898 1.17418789863586426 -0 1 0
3.81278610229492188 4.27288579940795898 1.11219239234924316 -0 1 0
3.87555360794067383 4.27288579940795898 1.0795741081237793 -0 1 0
3.79775094985961914 4.27288579940795898 1.0631556510925293 -0 1 0
3.67031216621398926 4.27288579940795898 1.45057439804077148 -0 1 0
3.86347055435180664 4.27288579940795898 1.7763359546661377 -0 1 0
3.8129124641418457 4.27288579940795898 1.25064969062805176 -0 1 0
3.78925442695617676 4.27288579940795898 1.15665483474731445 -0 1 0
3.66275143623352051 4.27288579940795898 1.07881832122802734 -0 1 0
3.63306283950805664 4.27288579940795898 1.25687241554260254 -0 1 0
3.81538748741149902 4.27288579940795898 1.77239906787872314 -0 1 0
3.76040101051330566 4.27288579940795898 1.31040656566619873 -0 1 0
3.85841870307922363 4.27288579940795898 1.2309640645980835 -0 1 0
3.86230087280273438 4.27288579940795898 1.37773239612579346 -0 1 0
3.73746395111083984 4.27288579940795898 1.19261252880096436 -0 1 0
3.55205035209655762 4.27288579940795898 1.07427728176116943 -0 1 0
3.4752500057220459 4.27288579940795898 1.01352322101593018 -0 1 0
3.63457179069519043 4.27288579940795898 1.20334827899932861 -0 1 0
3.72494411468505859 4.27288579940795898 1.27473747730255127 -0 1 0
3.49852681159973145 4.27288579940795898 1.06736874580383301 -0 1 0
3.86845898628234863 4.27288579940795898 1.65546190738677979 -0 1 0
3.90424227714538574 4.27288579940795898 1.68686008453369141 -0 1 0
3.77629518508911133 4.27288579940795898 1.67904675006866455 -0 1 0
3.76665973663330078 4.27288579940795898 1.22953391075134277 -0 1 0
3.68758845329284668 4.27288579940795898 1.36142992973327637 -0 1 0
3.82862138748168945 4.27288579940795898 1.51487529277801514 -0 1 0
3.73285508155822754 4.27288579940795898 1.503928542137146 -0 1 0
3.89937329292297363 4.27288579940795898 1.4635319709777832 -0 1 0
3.74260926246643066 4.27288579940795898 1.38643920421600342 -0 1 0
3.6398618221282959 4.27288579940795898 1.14395058155059814 -0 1 0
3.76357245445251465 4.27288579940795898 1.00242006778717041 -0 1 0
3.77352309226989746 4.27288579940795898 1.62716579437255859 -0 1 0
3.77197933197021484 4.27288579940795898 1.43757295608520508 -0 1 0
3.89019489288330078 4.27288579940795898 1.31938612461090088 -0 1 0
3.58118224143981934 4.27288579940795898 1.17756235599517822 -0 1 0
3.74366664886474609 4.27288579940795898 1.56669151782989502 -0 1 0
3.61159873008728027 4.27288579940795898 1.03241968154907227 -0 1 0
3.82729268074035645 4.27288579940795898 1.43971002101898193 -0 1 0
3.82114005088806152 4.27288579940795898 1.61787307262420654 -0 1 0
3.63944578170776367 4.27288579940795898 1.33605670928955078 -0 1 0
3.83722376823425293 4.27288579940795898 1.00605404376983643 -0 1 0
3.82664680480957031 4.27288579940795898 1.70060861110687256 -0 1 0
3.8333899974822998 4.27288579940795898 1.32947659492492676 -0 1 0
3.52203059196472168 4.27288579940795898 1.12839400768280029 -0 1 0
3.79063868522644043 4.27288579940795898 1.58096218109130859 -0 1 0
3.6864478588104248 4.27288579940795898 1.13581717014312744 -0 1 0
3.72163963317871094 4.27288579940795898 1.03808200359344482 -0 1 0
3.86729097366333008 4.27288579940795898 0.182381033897399902 -0 1 0
3.81586098670959473 4.27288579940795898 0.582757532596588135 -0 1 0
3.66297006607055664 4.27288579940795898 -0.767200767993927002 -0 1 0
3.8767707347869873 4.27288579940795898 0.0329052656888961792 -0 1 0
3.72333121299743652 4.27288579940795898 -0.154014691710472107 -0 1 0
3.90173649787902832 4.27288579940795898 0.988341212272644043 -0 1 0
3.47488069534301758 4.27288579940795898 -0.975877165794372559 -0 1 0
3.8321075439453125 4.27288579940795898 -0.624229729175567627 -0 1 0
3.89266681671142578 4.27288579940795898 -0.712956905364990234 -0 1 0
3.84642767906188965 4.27288579940795898 -0.717452585697174072 -0 1 0
3.75985050201416016 4.27288579940795898 -0.791172444820404053 -0 1 0
3.66393542289733887 4.27288579940795898 -0.228203415870666504 -0 1 0
3.77405381202697754 4.27288579940795898 -0.382083624601364136 -0 1 0
3.54949092864990234 4.27288579940795898 -0.761108458042144775 -0 1 0
3.68187999725341797 4.27288579940795898 0.0602670609951019287 -0 1 0
3.62781119346618652 4.27288579940795898 -0.622847855091094971 -0 1 0
3.69403219223022461 4.27288579940795898 -0.271983981132507324 -0 1 0
3.5869910717010498 4.27288579940795898 -0.463380753993988037 -0 1 0
3.76159811019897461 4.27288579940795898 0.21339695155620575 -0 1 0
3.79016494750976562 4.27288579940795898 0.123251914978027344 -0 1 0
3.86458730697631836 4.27288579940795898 -0.766951918601989746 -0 1 0
3.82288360595703125 4.27288579940795898 -0.469425767660140991 -0 1 0
3.59548163414001465 4.27288579940795898 -0.793841302394866943 -0 1 0
3.53113126754760742 4.27288579940795898 -0.900394141674041748 -0 1 0
3.8228459358215332 4.27288579940795898 0.333984971046447754 -0 1 0
3.80388188362121582 4.27288579940795898 -0.283554375171661377 -0 1 0
3.52641487121582031 4.27288579940795898 -0.621020019054412842 -0 1 0
3.68963718414306641 4.27288579940795898 0.109399624168872833 -0 1 0
3.79624247550964355 4.27288579940795898 -0.859942853450775146 -0 1 0
3.72093009948730469 4.27288579940795898 -0.560414493083953857 -0 1 0
3.75573515892028809 4.27288579940795898 -0.966047286987304688 -0 1 0
3.48041200637817383 4.27288579940795898 -0.839454054832458496 -0 1 0
3.76729202270507812 4.27288579940795898 -0.60548633337020874 -0 1 0
3.77377939224243164 4.27288579940795898 -0.492624014616012573 -0 1 0
3.70487666130065918 4.27288579940795898 0.165162920951843262 -0 1 0
3.84001398086547852 4.27288579940795898 -0.115446873009204865 -0 1 0
3.85689449310302734 4.27288579940795898 -0.964859366416931152 -0 1 0
3.60076498985290527 4.27288579940795898 -0.512497127056121826 -0 1 0
3.66759824752807617 4.27288579940795898 -0.659792661666870117 -0 1 0
3.71534228324890137 4.27288579940795898 -0.513055860996246338 -0 1 0
3.86399602890014648 4.27288579940795898 -0.1679668128490448 -0 1 0
3.68245911598205566 4.27288579940795898 -0.328987002372741699 -0 1 0
3.75356125831604004 4.27288579940795898 -0.681680202484130859 -0 1 0
3.7669374942779541 4.27288579940795898 0.0587445050477981567 -0 1 0
3.89565539360046387 4.27288579940795898 -0.128550201654434204 -0 1 0
3.71235466003417969 4.27288579940795898 0.0230857711285352707 -0 1 0
3.7277379035949707 4.27288579940795898 -0.349878489971160889 -0 1 0
3.79116320610046387 4.27288579940795898 -0.0945586338639259338 -0 1 0
3.70158195495605469 4.27288579940795898 -0.0988459140062332153 -0 1 0
3.79792284965515137 4.27288579940795898 -0.920240223407745361 -0 1 0
3.87211012840270996 4.27288579940795898 0.328881204128265381 -0 1 0
3.60052299499511719 4.27288579940795898 -0.409932076930999756 -0 1 0
3.60290813446044922 4.27288579940795898 -0.562912285327911377 -0 1 0
3.85363578796386719 4.27288579940795898 -0.0211154930293560028 -0 1 0
3.64355683326721191 4.27288579940795898 -0.353122949600219727 -0 1 0
3.6103203296661377 4.27288579940795898 -0.910243988037109375 -0 1 0
3.8865966796875 4.27288579940795898 -0.869779348373413086 -0 1 0
3.5228121280670166 4.27288579940795898 -0.820820868015289307 -0 1 0
3.76943874359130859 4.27288579940795898 -0.737639486789703369 -0 1 0
3.84354186058044434 4.27288579940795898 0.127337723970413208 -0 1 0
3.70934534072875977 4.27288579940795898 -0.72417294979095459 -0 1 0
3.49773144721984863 4.27288579940795898 -0.75529026985168457 -0 1 0
3.61401605606079102 4.27288579940795898 -0.266298145055770874 -0 1 0
3.83134031295776367 4.27288579940795898 0.454966068267822266 -0 1 0
3.74076247215270996 4.27288579940795898 -0.436219453811645508 -0 1 0
3.52891683578491211 4.27288579940795898 -0.985917508602142334 -0 1 0
3.59668278694152832 4.27288579940795898 -0.849822878837585449 -0 1 0
3.85743117332458496 4.27288579940795898 0.558538913726806641 -0 1 0
3.69829773902893066 4.27288579940795898 -0.831395924091339111 -0 1 0
3.80033326148986816 4.27288579940795898 -0.68601691722869873 -0 1 0
3.81345748901367188 4.27288579940795898 -0.57253575325012207 -0 1 0
3.45774364471435547 4.27288579940795898 -0.895380198955535889 -0 1 0
3.83249592781066895 4.27288579940795898 -0.0631517097353935242 -0 1 0
3.67579984664916992 4.27288579940795898 -0.596527159214019775 -0 1 0
3.85768270492553711 4.27288579940795898 -0.548617243766784668 -0 1 0
3.79828047752380371 4.27288579940795898 0.176666021347045898 -0 1 0
3.90166211128234863 4.27288579940795898 -0.921965122222900391 -0 1 0
3.6621551513671875 4.27288579940795898 -0.712916314601898193 -0 1 0
3.84262990951538086 4.27288579940795898 -0.409315675497055054 -0 1 0
3.57250857353210449 4.27288579940795898 -0.700924932956695557 -0 1 0
3.87595653533935547 4.27288579940795898 0.0777927860617637634 -0 1 0
3.42894339561462402 4.27288579940795898 -0.95391547679901123 -0 1 0
3.57506442070007324 4.27288579940795898 -0.602960884571075439 -0 1 0
3.80608868598937988 4.27288579940795898 -0.810994625091552734 -0 1 0
3.69712948799133301 4.27288579940795898 -0.0218238364905118942 -0 1 0
3.78151345252990723 4.27288579940795898 -0.14145013689994812 -0 1 0
3.77811622619628906 4.27288579940795898 0.464205235242843628 -0 1 0
3.81549906730651855 4.27288579940795898 0.0712286829948425293 -0 1 0
3.60547900199890137 4.27288579940795898 -0.9747314453125 -0 1 0
3.7341454029083252 4.27288579940795898 -0.298876315355300903 -0 1 0
3.8638911247253418 4.27288579940795898 -0.341866254806518555 -0 1 0
3.69795799255371094 4.27288579940795898 -0.956623971462249756 -0 1 0
3.65983748435974121 4.27288579940795898 -0.452334582805633545 -0 1 0
3.90215492248535156 4.27288579940795898 0.517544388771057129 -0 1 0
3.65660309791564941 4.27288579940795898 -0.546239256858825684 -0 1 0
3.74949145317077637 4.27288579940795898 -0.877808988094329834 -0 1 0
3.8475189208984375 4.27288579940795898 -0.261392295360565186 -0 1 0
3.64353275299072266 4.27288579940795898 -0.873637497425079346 -0 1 0
3.56556606292724609 4.27288579940795898 -0.942790687084197998 -0 1 0
3.69377684593200684 4.27288579940795898 -0.387548506259918213 -0 1 0
3.59229612350463867 4.27288579940795898 -0.308204025030136108 -0 1 0
3.79428720474243164 4.27288579940795898 0.0195817537605762482 -0 1 0
3.77684354782104492 4.27288579940795898 0.315328925848007202 -0 1 0
3.74690604209899902 4.27288579940795898 -0.244449391961097717 -0 1 0
3.67659235000610352 4.27288579940795898 -0.171256721019744873 -0 1 0
3.83003354072570801 4.27288579940795898 0.512125313282012939 -0 1 0
3.77682900428771973 4.27288579940795898 -0.324738740921020508 -0 1 0
3.84856486320495605 4.27288579940795898 0.726862072944641113 -0 1 0
3.85682797431945801 4.27288579940795898 0.6497916579246521 -0 1 0
3.83651638031005859 4.27288579940795898 0.246634289622306824 -0 1 0
3.73526954650878906 4.27288579940795898 -0.0528478175401687622 -0 1 0
3.81942439079284668 4.27288579940795898 -0.363842040300369263 -0 1 0
3.64573001861572266 4.27288579940795898 -0.824239969253540039 -0 1 0
3.74453616142272949 4.27288579940795898 0.115023568272590637 -0 1 0
3.76483583450317383 4.27288579940795898 0.369965195655822754 -0 1 0
3.5174710750579834 4.27288579940795898 -0.680768132209777832 -0 1 0
3.78560972213745117 4.27288579940795898 -0.0371220037341117859 -0 1 0
3.78613448143005371 4.27288579940795898 -0.199638023972511292 -0 1 0
3.71894598007202148 4.27288579940795898 -0.911629855632781982 -0 1 0
3.71999096870422363 4.27288579940795898 -0.617775142192840576 -0 1 0
3.4656212329864502 4.27288579940795898 -1.57423090934753418 0 1 -0
3.51351642608642578 4.27288579940795898 -1.34884560108184814 0 1 -0
3.52892231941223145 4.27288579940795898 -1.19627785682678223 0 1 -0
3.45763087272644043 4.27288579940795898 -1.32914996147155762 0 1 -0
3.55327868461608887 4.27288579940795898 -1.31206893920898438 0 1 -0
3.58112025260925293 4.27288579940795898 -1.46692454814910889 0 1 -0
3.67148518562316895 4.27288579940795898 -1.07968759536743164 0 1 -0
3.44214820861816406 4.27288579940795898 -1.42737674713134766 0 1 -0
3.43769645690917969 4.27288579940795898 -1.52546286582946777 0 1 -0
3.63098597526550293 4.27288579940795898 -1.05678927898406982 0 1 -0
3.6986086368560791 4.27288579940795898 -1.31292736530303955 0 1 -0
3.41806340217590332 4.27288579940795898 -1.61068987846374512 0 1 -0
3.5941922664642334 4.27288579940795898 -1.10501718521118164 0 1 -0
3.69930481910705566 4.27288579940795898 -1.13650608062744141 0 1 -0
3.81945991516113281 4.27288579940795898 -1.07441914081573486 0 1 -0
3.78592324256896973 4.27288579940795898 -1.20297026634216309 0 1 -0
3.61616778373718262 4.27288579940795898 -1.55458283424377441 0 1 -0
3.49730277061462402 4.27288579940795898 -1.71097016334533691 0 1 -0
3.79022479057312012 4.27288579940795898 -1.15139269828796387 0 1 -0
3.50742244720458984 4.27288579940795898 -1.76422655582427979 0 1 -0
3.510589599609375 4.27288579940795898 -1.56247425079345703 0 1 -0
3.60396957397460938 4.27288579940795898 -1.18054497241973877 0 1 -0
3.55358433723449707 4.27288579940795898 -1.62789070606231689 0 1 -0
3.41636514663696289 4.27288579940795898 -1.36760509014129639 0 1 -0
3.72530770301818848 4.27288579940795898 -1.26069986820220947 0 1 -0
3.55644941329956055 4.27288579940795898 -1.51755082607269287 0 1 -0
3.55763530731201172 4.27288579940795898 -1.25722670555114746 0 1 -0
3.70119667053222656 4.27288579940795898 -1.39309871196746826 0 1 -0
3.6533815860748291 4.27288579940795898 -1.17142832279205322 0 1 -0
3.43394684791564941 4.27288579940795898 -1.12331414222717285 0 1 -0
3.65705132484436035 4.27288579940795898 -1.36272287368774414 0 1 -0
3.54492497444152832 4.27288579940795898 -1.10745847225189209 0 1 -0
3.86641311645507812 4.27288579940795898 -1.07188820838928223 0 1 -0
3.49139523506164551 4.27288579940795898 -1.03868889808654785 0 1 -0
3.68023324012756348 4.27288579940795898 -1.23600316047668457 0 1 -0
3.72632765769958496 4.27288579940795898 -1.03767335414886475 0 1 -0
3.72972846031188965 4.27288579940795898 -1.08955001831054688 0 1 -0
3.46856975555419922 4.27288579940795898 -1.25552606582641602 0 1 -0
3.46238255500793457 4.27288579940795898 -1.81051230430603027 0 1 -0
3.57817339897155762 4.27288579940795898 -1.02084541320800781 0 1 -0
3.47844576835632324 4.27288579940795898 -1.18065333366394043 0 1 -0
3.73652815818786621 4.27288579940795898 -1.16854608058929443 0 1 -0
3.86220884323120117 4.27288579940795898 -1.02341341972351074 0 1 -0
3.60321927070617676 4.27288579940795898 -1.35657322406768799 0 1 -0
3.5471339225769043 4.27288579940795898 -1.405448317527771 0 1 -0
3.46381497383117676 4.27288579940795898 -1.66281509399414062 0 1 -0
3.43047213554382324 4.27288579940795898 -1.01255643367767334 0 1 -0
3.60733246803283691 4.27288579940795898 -1.30700254440307617 0 1 -0
3.63998031616210938 4.27288579940795898 -1.45770931243896484 0 1 -0
3.60717105865478516 4.27288579940795898 -1.25831007957458496 0 1 -0
3.62548184394836426 4.27288579940795898 -1.40518534183502197 0 1 -0
3.50014758110046387 4.27288579940795898 -1.61593055725097656 0 1 -0
3.77383756637573242 4.27288579940795898 -1.249350905418396 0 1 -0
3.66436052322387695 4.27288579940795898 -1.01921582221984863 0 1 -0
3.74979543685913086 4.27288579940795898 -1.55558931827545166 -0 1 0
3.66993451118469238 4.27288579940795898 -1.72645032405853271 -0 1 0
3.82992982864379883 4.27288579940795898 -1.3608701229095459 -0 1 0
3.82684206962585449 4.27288579940795898 -1.52268886566162109 -0 1 0
3.83536720275878906 4.27288579940795898 -1.78524541854858398 -0 1 0
3.65548205375671387 4.27288579940795898 -1.59320330619812012 -0 1 0
3.57657074928283691 4.27288579940795898 -1.76805555820465088 -0 1 0
3.7441103458404541 4.27288579940795898 -1.61177933216094971 -0 1 0
3.6958155632019043 4.27288579940795898 -1.61685144901275635 -0 1 0
3.75353002548217773 4.27288579940795898 -1.41470527648925781 -0 1 0
3.56339049339294434 4.27288579940795898 -1.87407577037811279 -0 1 0
3.73682212829589844 4.27288579940795898 -1.82491505146026611 -0 1 0
3.54181051254272461 4.27288579940795898 -1.93097817897796631 -0 1 0
3.8002471923828125 4.27288579940795898 -1.73206198215484619 -0 1 0
3.72398900985717773 4.27288579940795898 -1.87359070777893066 -0 1 0
3.89901924133300781 4.27288579940795898 -1.29935288429260254 -0 1 0
3.83202600479125977 4.27288579940795898 -1.9033815860748291 -0 1 0
3.78914237022399902 4.27288579940795898 -1.67250943183898926 -0 1 0
3.78384876251220703 4.27288579940795898 -1.81079483032226562 -0 1 0
3.81692409515380859 4.27288579940795898 -1.4382098913192749 -0 1 0
3.8521728515625 4.27288579940795898 -1.23814916610717773 -0 1 0
3.66443061828613281 4.27288579940795898 -1.81136703491210938 -0 1 0
3.8397669792175293 4.27288579940795898 -1.30970907211303711 -0 1 0
3.87094569206237793 4.27288579940795898 -1.83159744739532471 -0 1 0
3.8844459056854248 4.27288579940795898 -1.64319860935211182 -0 1 0
3.90212440490722656 4.27288579940795898 -1.43751049041748047 -0 1 0
3.64929795265197754 4.27288579940795898 -1.90594887733459473 -0 1 0
3.89847922325134277 4.27288579940795898 -1.90118288993835449 -0 1 0
3.61439132690429688 4.27288579940795898 -1.73851311206817627 -0 1 0
3.81695199012756348 4.27288579940795898 -1.57342863082885742 -0 1 0
3.83163619041442871 4.27288579940795898 -1.65005302429199219 -0 1 0
3.7820734977722168 4.27288579940795898 -1.91459071636199951 -0 1 0
3.71549773216247559 4.27288579940795898 -1.93014609813690186 -0 1 0
3.53135800361633301 4.27288579940795898 -1.80397415161132812 -0 1 0
3.87102890014648438 4.27288579940795898 -1.493857741355896 -0 1 0
3.68088388442993164 4.27288579940795898 -1.85732042789459229 -0 1 0
3.65976214408874512 4.27288579940795898 -1.51883530616760254 -0 1 0
3.74617576599121094 4.27288579940795898 -1.35139608383178711 -0 1 0
3.7241828441619873 4.27288579940795898 -1.68039894104003906 -0 1 0
3.72272968292236328 4.27288579940795898 -1.74660241603851318 -0 1 0
3.77751779556274414 4.27288579940795898 -1.31079447269439697 -0 1 0
3.72774791717529297 4.27288579940795898 -1.46881020069122314 -0 1 0
3.84171652793884277 4.27288579940795898 -1.14378881454467773 -0 1 0
3.55364298820495605 4.27288579940795898 -1.70428943634033203 -0 1 0
3.79156374931335449 4.27288579940795898 -1.8570559024810791 -0 1 0
3.61080360412597656 4.27288579940795898 -1.61180603504180908 -0 1 0
3.49150514602661133 4.27288579940795898 -1.9013824462890625 -0 1 0
3.76637959480285645 4.27288579940795898 -1.5016014575958252 -0 1 0
3.61491608619689941 4.27288579940795898 -1.87325608730316162 -0 1 0
3.90230083465576172 4.27288579940795898 -1.55880129337310791 -0 1 0
3.64172172546386719 4.27288579940795898 -1.68488895893096924 -0 1 0
3.62018513679504395 4.27288579940795898 -1.80024027824401855 -0 1 0
0.784625887870788574 4.27288579940795898 -1.78885865211486816 -0 1 0
3.21651053428649902 4.27288579940795898 -1.38564515113830566 -0 1 0
2.65323662757873535 4.27288579940795898 -1.91082775592803955 -0 1 0
1.47062206268310547 4.27288579940795898 -1.89273178577423096 -0 1 0
0.863940119743347168 4.27288579940795898 -1.6393967866897583 -0 1 0
2.16971135139465332 4.27288579940795898 -1.64464759826660156 -0 1 0
1.95245575904846191 4.27288579940795898 -1.75386369228363037 -0 1 0
-2.10959625244140625 4.27288579940795898 -1.87655997276306152 -0 1 0
-1.97996091842651367 4.27288579940795898 -1.80425691604614258 -0 1 0
2.66658282279968262 4.27288579940795898 -1.85859966278076172 -0 1 0
1.79251885414123535 4.27288579940795898 -1.38693869113922119 -0 1 0
1.95573949813842773 4.27288579940795898 -1.2257765531539917 -0 1 0
1.01230943202972412 4.27288579940795898 -1.61186432838439941 -0 1 0
2.9516451358795166 4.27288579940795898 -1.28381752967834473 -0 1 0
-0.875972092151641846 4.27288579940795898 -1.89823460578918457 -0 1 0
1.18530094623565674 4.27288579940795898 -1.62410402297973633 -0 1 0
-2.51175999641418457 4.27288579940795898 -1.92454636096954346 -0 1 0
1.79364252090454102 4.27288579940795898 -1.66162121295928955 -0 1 0
-2.24186038970947266 4.27288579940795898 -1.94329845905303955 -0 1 0
3.20985937118530273 4.27288579940795898 -1.5940701961517334 -0 1 0
0.485494941473007202 4.27288579940795898 -1.75013077259063721 -0 1 0
0.58524632453918457 4.27288579940795898 -1.8425830602645874 -0 1 0
2.24755382537841797 4.27288579940795898 -1.69026100635528564 -0 1 0
2.70114850997924805 4.27288579940795898 -1.56243467330932617 -0 1 0
2.12262248992919922 4.27288579940795898 -1.64896535873413086 -0 1 0
1.9364020824432373 4.27288579940795898 -1.89800691604614258 -0 1 0
0.990287423133850098 4.27288579940795898 -1.70169031620025635 -0 1 0
-1.59697902202606201 4.27288579940795898 -1.76236271858215332 -0 1 0
0.339348644018173218 4.27288579940795898 -1.59002256393432617 -0 1 0
1.91239583492279053 4.27288579940795898 -1.35784876346588135 -0 1 0
2.13936352729797363 4.27288579940795898 -1.32907426357269287 -0 1 0
2.75994014739990234 4.27288579940795898 -1.88815867900848389 -0 1 0
3.04548978805541992 4.27288579940795898 -1.2158585786819458 -0 1 0
-0.1745452880859375 4.27288579940795898 -1.70445120334625244 -0 1 0
2.16607379913330078 4.27288579940795898 -1.77079665660858154 -0 1 0
3.01161098480224609 4.27288579940795898 -1.82915961742401123 -0 1 0
2.67762160301208496 4.27288579940795898 -1.31168711185455322 -0 1 0
1.87282097339630127 4.27288579940795898 -1.54194140434265137 -0 1 0
2.69314789772033691 4.27288579940795898 -1.44595992565155029 -0 1 0
-1.50761592388153076 4.27288579940795898 -1.93780422210693359 -0 1 0
0.111955240368843079 4.27288579940795898 -1.85390388965606689 -0 1 0
3.29572844505310059 4.27288579940795898 -1.42412567138671875 -0 1 0
1.78527998924255371 4.27288579940795898 -1.58444702625274658 -0 1 0
1.18028521537780762 4.27288579940795898 -1.8944321870803833 -0 1 0
2.88037538528442383 4.27288579940795898 -1.73581874370574951 -0 1 0
1.63290750980377197 4.27288579940795898 -1.87475264072418213 -0 1 0
-1.28296542167663574 4.27288579940795898 -1.70358395576477051 -0 1 0
1.70913708209991455 4.27288579940795898 -1.40064620971679688 -0 1 0
2.60116672515869141 4.27288579940795898 -1.28852963447570801 -0 1 0
2.46047210693359375 4.27288579940795898 -1.21350038051605225 -0 1 0
0.959795653820037842 4.27288579940795898 -1.90743029117584229 -0 1 0
0.65845566987991333 4.27288579940795898 -1.75851321220397949 -0 1 0
1.53235852718353271 4.27288579940795898 -1.79104733467102051 -0 1 0
3.39378261566162109 4.27288579940795898 -1.81308841705322266 -0 1 0
0.409196168184280396 4.27288579940795898 -1.64536476135253906 -0 1 0
-0.15641804039478302 4.27288579940795898 -1.5043107271194458 -0 1 0
2.80664706230163574 4.27288579940795898 -1.44556796550750732 -0 1 0
-0.575963318347930908 4.27288579940795898 -1.84969031810760498 -0 1 0
2.36068034172058105 4.27288579940795898 -1.47676432132720947 -0 1 0
1.40747761726379395 4.27288579940795898 -1.70440292358398438 -0 1 0
1.12726914882659912 4.27288579940795898 -1.749603271484375 -0 1 0
3.14623069763183594 4.27288579940795898 -1.35306143760681152 -0 1 0
1.34594690799713135 4.27288579940795898 -1.49100136756896973 -0 1 0
-1.27948784828186035 4.27288579940795898 -1.9062885046005249 -0 1 0
0.472994625568389893 4.27288579940795898 -1.87153184413909912 -0 1 0
-1.10496854782104492 4.27288579940795898 -1.84319114685058594 -0 1 0
2.06823635101318359 4.27288579940795898 -1.59532201290130615 -0 1 0
3.22058248519897461 4.27288579940795898 -1.4695594310760498 -0 1 0
2.24872589111328125 4.27288579940795898 -1.8819282054901123 -0 1 0
3.05997204780578613 4.27288579940795898 -1.56242144107818604 -0 1 0
-2.19241786003112793 4.27288579940795898 -1.87737381458282471 -0 1 0
0.753566205501556396 4.27288579940795898 -1.40961897373199463 -0 1 0
1.72506093978881836 4.27288579940795898 -1.35594594478607178 -0 1 0
2.78085517883300781 4.27288579940795898 -1.83489453792572021 -0 1 0
3.40694022178649902 4.27288579940795898 -1.24128377437591553 -0 1 0
1.23451519012451172 4.27288579940795898 -1.94806349277496338 -0 1 0
2.64050412178039551 4.27288579940795898 -1.67470753192901611 -0 1 0
-1.36249029636383057 4.27288579940795898 -1.79778051376342773 -0 1 0
2.25368261337280273 4.27288579940795898 -1.49353432655334473 -0 1 0
1.08339965343475342 4.27288579940795898 -1.9026561975479126 -0 1 0
0.458113610744476318 4.27288579940795898 -1.93058133125305176 -0 1 0
0.170334935188293457 4.27288579940795898 -1.83163666725158691 -0 1 0
2.4302375316619873 4.27288579940795898 -1.38110530376434326 -0 1 0
0.451638251543045044 4.27288579940795898 -1.54692184925079346 -0 1 0
1.47914803028106689 4.27288579940795898 -1.61777997016906738 -0 1 0
2.41454911231994629 4.27288579940795898 -1.69194924831390381 -0 1 0
-2.42029857635498047 4.27288579940795898 -1.83403003215789795 -0 1 0
1.87852096557617188 4.27288579940795898 -1.3098987340927124 -0 1 0
0.312324285507202148 4.27288579940795898 -1.74135661125183105 -0 1 0
2.87827301025390625 4.27288579940795898 -1.80265355110168457 -0 1 0
-0.489280730485916138 4.27288579940795898 -1.814422607421875 -0 1 0
-0.362922340631484985 4.27288579940795898 -1.88719940185546875 -0 1 0
0.0896543413400650024 4.27288579940795898 -1.63751387596130371 -0 1 0
-2.59775757789611816 4.27288579940795898 -1.87700009346008301 -0 1 0
-2.94111299514770508 4.27288579940795898 -1.91197597980499268 -0 1 0
2.1003577709197998 4.27288579940795898 -1.21975076198577881 -0 1 0
1.55453705787658691 4.27288579940795898 -1.31539750099182129 -0 1 0
-0.757683634757995605 4.27288579940795898 -1.93591034412384033 -0 1 0
0.127972230315208435 4.27288579940795898 -1.90374958515167236 -0 1 0
2.39629697799682617 4.27288579940795898 -1.51369857788085938 -0 1 0
2.21741461753845215 4.27288579940795898 -1.53836321830749512 -0 1 0
3.15096664428710938 4.27288579940795898 -1.70724737644195557 -0 1 0
2.57080888748168945 4.27288579940795898 -1.60045337677001953 -0 1 0
1.80586791038513184 4.27288579940795898 -1.75769150257110596 -0 1 0
-0.275484323501586914 4.27288579940795898 -1.52906632423400879 -0 1 0
1.61942446231842041 4.27288579940795898 -1.92413473129272461 -0 1 0
2.34644269943237305 4.27288579940795898 -1.90271759033203125 -0 1 0
2.53541016578674316 4.27288579940795898 -1.72303247451782227 -0 1 0
2.04354596138000488 4.27288579940795898 -1.93299150466918945 -0 1 0
1.03984546661376953 4.27288579940795898 -1.65090560913085938 -0 1 0
0.422773838043212891 4.27288579940795898 -1.76942038536071777 -0 1 0
2.50990104675292969 4.27288579940795898 -1.28705227375030518 -0 1 0
-0.142565250396728516 4.27288579940795898 -1.62649047374725342 -0 1 0
0.789130628108978271 4.27288579940795898 -1.64840245246887207 -0 1 0
1.31073510646820068 4.27288579940795898 -1.63538253307342529 -0 1 0
3.36712741851806641 4.27288579940795898 -1.61547672748565674 -0 1 0
1.42363417148590088 4.27288579940795898 -1.95157516002655029 -0 1 0
0.695135891437530518 4.27288579940795898 -1.81631290912628174 -0 1 0
2.12147164344787598 4.27288579940795898 -1.26420378684997559 -0 1 0
1.52502739429473877 4.27288579940795898 -1.54857921600341797 -0 1 0
3.34740233421325684 4.27288579940795898 -1.50833749771118164 -0 1 0
1.44450747966766357 4.27288579940795898 -1.4920579195022583 -0 1 0
2.70328497886657715 4.27288579940795898 -1.88554799556732178 -0 1 0
3.03275823593139648 4.27288579940795898 -1.65876734256744385 -0 1 0
-0.534741878509521484 4.27288579940795898 -1.78956997394561768 -0 1 0
-0.216842874884605408 4.27288579940795898 -1.94890296459197998 -0 1 0
2.72770214080810547 4.27288579940795898 -1.3342820405960083 -0 1 0
1.58576297760009766 4.27288579940795898 -1.81101393699645996 -0 1 0
1.5448230504989624 4.27288579940795898 -1.84035086631774902 -0 1 0
3.19789886474609375 4.27288579940795898 -1.89414787292480469 -0 1 0
2.81553816795349121 4.27288579940795898 -1.35935854911804199 -0 1 0
-1.63804125785827637 4.27288579940795898 -1.85274779796600342 -0 1 0
0.960018455982208252 4.27288579940795898 -1.6028144359588623 -0 1 0
2.76747369766235352 4.27288579940795898 -1.55507588386535645 -0 1 0
1.36071860790252686 4.27288579940795898 -1.71174025535583496 -0 1 0
0.00380192114971578121 4.27288579940795898 -1.49118649959564209 -0 1 0
-1.04287242889404297 4.27288579940795898 -1.63794577121734619 -0 1 0
2.81967568397521973 4.27288579940795898 -1.87029480934143066 -0 1 0
1.0575481653213501 4.27288579940795898 -1.41146361827850342 -0 1 0
0.0504696406424045563 4.27288579940795898 -1.54632937908172607 -0 1 0
1.59024608135223389 4.27288579940795898 -1.53753030300140381 -0 1 0
1.62161219120025635 4.27288579940795898 -1.35070145130157471 -0 1 0
-0.338762104511260986 4.27288579940795898 -1.6570134162902832 -0 1 0
1.32041049003601074 4.27288579940795898 -1.91140460968017578 -0 1 0
2.60126543045043945 4.27288579940795898 -1.5316087007522583 -0 1 0
3.13228321075439453 4.27288579940795898 -1.89905655384063721 -0 1 0
2.82674980163574219 4.27288579940795898 -1.51249420642852783 -0 1 0
2.53729462623596191 4.27288579940795898 -1.5203012228012085 -0 1 0
-1.46486461162567139 4.27288579940795898 -1.78835117816925049 -0 1 0
3.28179359436035156 4.27288579940795898 -1.55878174304962158 -0 1 0
1.06200730800628662 4.27288579940795898 -1.79318201541900635 -0 1 0
1.31372237205505371 4.27288579940795898 -1.29679858684539795 -0 1 0
-1.91866254806518555 4.27288579940795898 -1.81080043315887451 -0 1 0
2.4622352123260498 4.27288579940795898 -1.85832810401916504 -0 1 0
2.23510551452636719 4.27288579940795898 -1.61658167839050293 -0 1 0
0.117770470678806305 4.27288579940795898 -1.58899760246276855 -0 1 0
0.906943202018737793 4.27288579940795898 -1.60686087608337402 -0 1 0
2.40514707565307617 4.27288579940795898 -1.45575118064880371 -0 1 0
2.70907211303710938 4.27288579940795898 -1.27248620986938477 -0 1 0
3.16157913208007812 4.27288579940795898 -1.26340591907501221 -0 1 0
-0.780523121356964111 4.27288579940795898 -1.73419439792633057 -0 1 0
-1.17850744724273682 4.27288579940795898 -1.75800728797912598 -0 1 0
-1.03960192203521729 4.27288579940795898 -1.8678659200668335 -0 1 0
1.51870977878570557 4.27288579940795898 -1.48666250705718994 -0 1 0
0.534649014472961426 4.27288579940795898 -1.76703989505767822 -0 1 0
1.29845309257507324 4.27288579940795898 -1.52031660079956055 -0 1 0
0.827686309814453125 4.27288579940795898 -1.57922565937042236 -0 1 0
0.617797970771789551 4.27288579940795898 -1.4383392333984375 -0 1 0
-0.790283918380737305 4.27288579940795898 -1.68241775035858154 -0 1 0
-0.413009166717529297 4.27288579940795898 -1.69129467010498047 -0 1 0
2.98625493049621582 4.27288579940795898 -1.94458377361297607 -0 1 0
-0.58033299446105957 4.27288579940795898 -1.79151690006256104 -0 1 0
3.22187113761901855 4.27288579940795898 -1.24672973155975342 -0 1 0
2.8614194393157959 4.27288579940795898 -1.32055175304412842 -0 1 0
0.37597772479057312 4.27288579940795898 -1.92609894275665283 -0 1 0
2.08963584899902344 4.27288579940795898 -1.77385687828063965 -0 1 0
2.64920330047607422 4.27288579940795898 -1.78938019275665283 -0 1 0
-1.19460821151733398 4.27288579940795898 -1.83570504188537598 -0 1 0
1.24910926818847656 4.27288579940795898 -1.63998568058013916 -0 1 0
-1.22169196605682373 4.27288579940795898 -1.88505470752716064 -0 1 0
2.88714742660522461 4.27288579940795898 -1.8523484468460083 -0 1 0
-1.02110755443572998 4.27288579940795898 -1.68103742599487305 -0 1 0
3.08849787712097168 4.27288579940795898 -1.73149347305297852 -0 1 0
2.75019431114196777 4.27288579940795898 -1.42933094501495361 -0 1 0
0.521446764469146729 4.27288579940795898 -1.71766674518585205 -0 1 0
1.84538722038269043 4.27288579940795898 -1.79239094257354736 -0 1 0
1.43665492534637451 4.27288579940795898 -1.65666520595550537 -0 1 0
1.02531898021697998 4.27288579940795898 -1.45833969116210938 -0 1 0
0.583416104316711426 4.27288579940795898 -1.79256951808929443 -0 1 0
2.39665079116821289 4.27288579940795898 -1.91807436943054199 -0 1 0
0.530445098876953125 4.27288579940795898 -1.49892044067382812 -0 1 0
2.6867365837097168 4.27288579940795898 -1.75196373462677002 -0 1 0
1.31190907955169678 4.27288579940795898 -1.70200502872467041 -0 1 0
2.5441901683807373 4.27288579940795898 -1.13380634784698486 -0 1 0
2.18095016479492188 4.27288579940795898 -1.43624019622802734 -0 1 0
3.31213045120239258 4.27288579940795898 -1.73155450820922852 -0 1 0
0.168436065316200256 4.27288579940795898 -1.7656397819519043 -0 1 0
1.60587155818939209 4.27288579940795898 -1.70471346378326416 -0 1 0
0.564040780067443848 4.27288579940795898 -1.67333006858825684 -0 1 0
0.241384491324424744 4.27288579940795898 -1.85529422760009766 -0 1 0
-0.816587388515472412 4.27288579940795898 -1.92978334426879883 -0 1 0
2.73568630218505859 4.27288579940795898 -1.72405612468719482 -0 1 0
-0.506242871284484863 4.27288579940795898 -1.65760886669158936 -0 1 0
0.685697793960571289 4.27288579940795898 -1.68999838829040527 -0 1 0
-0.0351811125874519348 4.27288579940795898 -1.58513748645782471 -0 1 0
3.30558371543884277 4.27288579940795898 -1.6712501049041748 -0 1 0
-0.155813008546829224 4.27288579940795898 -1.78568089008331299 -0 1 0
1.4895179271697998 4.27288579940795898 -1.83866775035858154 -0 1 0
-0.10636487603187561 4.27288579940795898 -1.79149818420410156 -0 1 0
0.608417391777038574 4.27288579940795898 -1.75174391269683838 -0 1 0
1.81837201118469238 4.27288579940795898 -1.26156902313232422 -0 1 0
-1.36540913581848145 4.27288579940795898 -1.88367915153503418 -0 1 0
1.04144597053527832 4.27288579940795898 -1.69794225692749023 -0 1 0
2.4702298641204834 4.27288579940795898 -1.42533552646636963 -0 1 0
0.678134620189666748 4.27288579940795898 -1.89855432510375977 -0 1 0
2.56458044052124023 4.27288579940795898 -1.40177750587463379 -0 1 0
1.10004401206970215 4.27288579940795898 -1.4405369758605957 -0 1 0
-0.0897248759865760803 4.27288579940795898 -1.83479106426239014 -0 1 0
3.06155776977539062 4.27288579940795898 -1.40130138397216797 -0 1 0
1.66144180297851562 4.27288579940795898 -1.41392648220062256 -0 1 0
1.77738440036773682 4.27288579940795898 -1.43749713897705078 -0 1 0
2.85848498344421387 4.27288579940795898 -1.61100006103515625 -0 1 0
0.689930558204650879 4.27288579940795898 -1.52559459209442139 -0 1 0
-1.81003105640411377 4.27288579940795898 -1.765083909034729 -0 1 0
3.36121821403503418 4.27288579940795898 -1.36193418502807617 -0 1 0
-0.303400278091430664 4.27288579940795898 -1.60788130760192871 -0 1 0
3.10475802421569824 4.27288579940795898 -1.23089849948883057 -0 1 0
0.940447151660919189 4.27288579940795898 -1.48404645919799805 -0 1 0
2.98086977005004883 4.27288579940795898 -1.20186328887939453 -0 1 0
-0.392275869846343994 4.27288579940795898 -1.9478381872177124 -0 1 0
2.07502365112304688 4.27288579940795898 -1.49347972869873047 -0 1 0
2.97346091270446777 4.27288579940795898 -1.40935349464416504 -0 1 0
3.19884347915649414 4.27288579940795898 -1.10934436321258545 -0 1 0
-0.540772676467895508 4.27288579940795898 -1.59955406188964844 -0 1 0
0.216272905468940735 4.27288579940795898 -1.80445384979248047 -0 1 0
3.15961527824401855 4.27288579940795898 -1.81330776214599609 -0 1 0
2.36399722099304199 4.27288579940795898 -1.81578648090362549 -0 1 0
3.08250188827514648 4.27288579940795898 -1.79058659076690674 -0 1 0
3.15967965126037598 4.27288579940795898 -1.63576984405517578 -0 1 0
2.0469510555267334 4.27288579940795898 -1.36114835739135742 -0 1 0
2.00561666488647461 4.27288579940795898 -1.31972062587738037 -0 1 0
2.73899936676025391 4.27288579940795898 -1.22957324981689453 -0 1 0
-0.664708137512207031 4.27288579940795898 -1.68841755390167236 -0 1 0
1.42045044898986816 4.27288579940795898 -1.8662109375 -0 1 0
-1.48331153392791748 4.27288579940795898 -1.85084152221679688 -0 1 0
-2.1419682502746582 4.27288579940795898 -1.78745388984680176 -0 1 0
-0.466905474662780762 4.27288579940795898 -1.7336505651473999 -0 1 0
-0.586382269859313965 4.27288579940795898 -1.62746000289916992 -0 1 0
0.256334036588668823 4.27288579940795898 -1.9016948938369751 -0 1 0
-0.752755105495452881 4.27288579940795898 -1.86591613292694092 -0 1 0
2.82761240005493164 4.27288579940795898 -1.67871928215026855 -0 1 0
1.96278250217437744 4.27288579940795898 -1.94912040233612061 -0 1 0
2.97738194465637207 4.27288579940795898 -1.77175760269165039 -0 1 0
0.360846161842346191 4.27288579940795898 -1.86514735221862793 -0 1 0
3.08110404014587402 4.27288579940795898 -1.94491994380950928 -0 1 0
2.3277125358581543 4.27288579940795898 -1.72505640983581543 -0 1 0
0.120737947523593903 4.27288579940795898 -1.74629557132720947 -0 1 0
-0.243959486484527588 4.27288579940795898 -1.90464329719543457 -0 1 0
2.83006501197814941 4.27288579940795898 -1.55935359001159668 -0 1 0
2.94871616363525391 4.27288579940795898 -1.52754223346710205 -0 1 0
0.71925276517868042 4.27288579940795898 -1.86272335052490234 -0 1 0
0.938086926937103271 4.27288579940795898 -1.72873079776763916 -0 1 0
2.35489630699157715 4.27288579940795898 -1.6221766471862793 -0 1 0
1.36334538459777832 4.27288579940795898 -1.82150435447692871 -0 1 0
-0.712893843650817871 4.27288579940795898 -1.57911396026611328 -0 1 0
2.49563789367675781 4.27288579940795898 -1.93410277366638184 -0 1 0
-0.60714566707611084 4.27288579940795898 -1.7290961742401123 -0 1 0
3.34757614135742188 4.27288579940795898 -1.6971585750579834 -0 1 0
0.485690176486968994 4.27288579940795898 -1.66965675354003906 -0 1 0
1.27476894855499268 4.27288579940795898 -1.4505542516708374 -0 1 0
-1.76642692089080811 4.27288579940795898 -1.7519451379776001 -0 1 0
3.22340130805969238 4.27288579940795898 -1.53038299083709717 -0 1 0
-0.0200206693261861801 4.27288579940795898 -1.73724699020385742 -0 1 0
-1.63928127288818359 4.27288579940795898 -1.79172933101654053 -0 1 0
1.08122062683105469 4.27288579940795898 -1.33730137348175049 -0 1 0
-0.4432697594165802 4.27288579940795898 -1.79070639610290527 -0 1 0
3.21534395217895508 4.27288579940795898 -1.83951997756958008 -0 1 0
2.48199272155761719 4.27288579940795898 -1.74862349033355713 -0 1 0
1.10970652103424072 4.27288579940795898 -1.56317079067230225 -0 1 0
0.632003068923950195 4.27288579940795898 -1.86926603317260742 -0 1 0
-0.0120811481028795242 4.27288579940795898 -1.64091956615447998 -0 1 0
2.40831542015075684 4.27288579940795898 -1.86058127880096436 -0 1 0
2.61105823516845703 4.27288579940795898 -1.36524093151092529 -0 1 0
1.64014518260955811 4.27288579940795898 -1.57009994983673096 -0 1 0
-0.224719882011413574 4.27288579940795898 -1.71368515491485596 -0 1 0
0.177233710885047913 4.27288579940795898 -1.69811773300170898 -0 1 0
1.84234368801116943 4.27288579940795898 -1.61844897270202637 -0 1 0
3.27048778533935547 4.27288579940795898 -1.50547003746032715 -0 1 0
3.06800484657287598 4.27288579940795898 -1.45269930362701416 -0 1 0
2.45677018165588379 4.27288579940795898 -1.62542414665222168 -0 1 0
3.08094286918640137 4.27288579940795898 -1.84262776374816895 -0 1 0
3.25997567176818848 4.27288579940795898 -1.35922491550445557 -0 1 0
2.23991870880126953 4.27288579940795898 -1.77085554599761963 -0 1 0
0.812199175357818604 4.27288579940795898 -1.39810287952423096 -0 1 0
1.98679220676422119 4.27288579940795898 -1.64901876449584961 -0 1 0
3.24076032638549805 4.27288579940795898 -1.63114488124847412 -0 1 0
3.02623844146728516 4.27288579940795898 -1.28230869770050049 -0 1 0
2.71691322326660156 4.27288579940795898 -1.66157412528991699 -0 1 0
-0.920614421367645264 4.27288579940795898 -1.843772292137146 -0 1 0
2.64856719970703125 4.27288579940795898 -1.60133707523345947 -0 1 0
1.57820987701416016 4.27288579940795898 -1.37018883228302002 -0 1 0
2.51258468627929688 4.27288579940795898 -1.85061931610107422 -0 1 0
-0.432909607887268066 4.27288579940795898 -1.61091256141662598 -0 1 0
-2.67291712760925293 4.27288579940795898 -1.91820812225341797 -0 1 0
1.20922935009002686 4.27288579940795898 -1.77887594699859619 -0 1 0
2.52174091339111328 4.27288579940795898 -1.18253707885742188 -0 1 0
-1.93005633354187012 4.27288579940795898 -1.8662116527557373 -0 1 0
0.392734736204147339 4.27288579940795898 -1.72762811183929443 -0 1 0
2.06796908378601074 4.27288579940795898 -1.69689440727233887 -0 1 0
-0.474371761083602905 4.27288579940795898 -1.5514979362487793 -0 1 0
3.22925281524658203 4.27288579940795898 -1.74922275543212891 -0 1 0
0.950747370719909668 4.27288579940795898 -1.66096222400665283 -0 1 0
3.05417966842651367 4.27288579940795898 -1.35303115844726562 -0 1 0
0.85131072998046875 4.27288579940795898 -1.70325219631195068 -0 1 0
2.47920393943786621 4.27288579940795898 -1.32695913314819336 -0 1 0
3.41003799438476562 4.27288579940795898 -1.91458261013031006 -0 1 0
-1.23504924774169922 4.27288579940795898 -1.75462090969085693 -0 1 0
2.38309669494628906 4.27288579940795898 -1.74096882343292236 -0 1 0
2.89131665229797363 4.27288579940795898 -1.66266798973083496 -0 1 0
2.26351594924926758 4.27288579940795898 -1.27415013313293457 -0 1 0
2.60195589065551758 4.27288579940795898 -1.74690032005310059 -0 1 0
3.39104437828063965 4.27288579940795898 -1.54055655002593994 -0 1 0
2.31309032440185547 4.27288579940795898 -1.1610482931137085 -0 1 0
2.27292346954345703 4.27288579940795898 -1.83316802978515625 -0 1 0
0.639784872531890869 4.27288579940795898 -1.81375312805175781 -0 1 0
2.72586655616760254 4.27288579940795898 -1.51504170894622803 -0 1 0
0.631838798522949219 4.27288579940795898 -1.54062962532043457 -0 1 0
1.6662975549697876 4.27288579940795898 -1.67206048965454102 -0 1 0
2.98912382125854492 4.27288579940795898 -1.6204679012298584 -0 1 0
3.01676106452941895 4.27288579940795898 -1.88840055465698242 -0 1 0
-0.650196611881256104 4.27288579940795898 -1.62013888359069824 -0 1 0
-0.561175823211669922 4.27288579940795898 -1.9177238941192627 -0 1 0
1.89341795444488525 4.27288579940795898 -1.64457023143768311 -0 1 0
1.50379586219787598 4.27288579940795898 -1.73089146614074707 -0 1 0
2.29142427444458008 4.27288579940795898 -1.89815902709960938 -0 1 0
1.75207996368408203 4.27288579940795898 -1.9148637056350708 -0 1 0
-0.298519015312194824 4.27288579940795898 -1.90981078147888184 -0 1 0
1.39270484447479248 4.27288579940795898 -1.30410265922546387 -0 1 0
3.30428338050842285 4.27288579940795898 -1.2180945873260498 -0 1 0
0.556901872158050537 4.27288579940795898 -1.89807283878326416 -0 1 0
3.40020179748535156 4.27288579940795898 -1.17870175838470459 -0 1 0
0.05304761603474617 4.27288579940795898 -1.49751102924346924 -0 1 0
-1.42168307304382324 4.27288579940795898 -1.76588058471679688 -0 1 0
2.33586692810058594 4.27288579940795898 -1.3956531286239624 -0 1 0
1.4222179651260376 4.27288579940795898 -1.60578489303588867 -0 1 0
1.53877079486846924 4.27288579940795898 -1.63915359973907471 -0 1 0
