ply
format ascii 1.0
element vertex 902
property float x
property float y
property float z
property float nx
property float ny
property float nz
end_header
-0.767732501029968262 0 0.143585383892059326 -0 1 -0
-0.13570035994052887 0 -0.360037267208099365 -0 1 -0
-0.290279984474182129 0 -0.643104970455169678 -0 1 -0
-0.0226944312453269958 0 -0.992521584033966064 -0 1 -0
0.0260247401893138885 0 -0.383491694927215576 -0 1 -0
-0.0820905044674873352 0 -0.222824499011039734 -0 1 -0
0.00160221790429204702 0 -0.437896907329559326 -0 1 -0
-0.868734121322631836 0 0.503621160984039307 -0 1 -0
0.244641005992889404 0 -0.875238418579101562 -0 1 -0
-0.281913906335830688 0 -0.415820270776748657 -0 1 -0
-0.697927117347717285 0 0.370025724172592163 -0 1 -0
-0.993000447750091553 0 0.179833307862281799 -0 1 -0
-0.399900585412979126 0 -0.641525983810424805 -0 1 -0
0.00876682158559560776 0 -0.20166461169719696 -0 1 -0
0.184065669775009155 0 -0.332035928964614868 -0 1 -0
-0.170873239636421204 0 0.00926225073635578156 -0 1 -0
0.588665664196014404 0 -0.911700189113616943 -0 1 -0
0.208110272884368896 0 -0.547775745391845703 -0 1 -0
-0.833944618701934814 0 -0.561212718486785889 -0 1 -0
-0.263600081205368042 0 -0.587150454521179199 -0 1 -0
-0.649132728576660156 0 0.387405186891555786 -0 1 -0
-0.711165726184844971 0 -0.480401217937469482 -0 1 -0
0.385169118642807007 0 -0.893425345420837402 -0 1 -0
-0.726787090301513672 0 0.329308658838272095 -0 1 -0
-0.249089717864990234 0 -0.237465634942054749 -0 1 -0
-0.56268841028213501 0 -0.937602996826171875 -0 1 -0
-0.68837970495223999 0 -0.916543722152709961 -0 1 -0
-0.761808454990386963 0 -0.25439143180847168 -0 1 -0
-0.107948862016201019 0 -0.834938526153564453 -0 1 -0
0.776532888412475586 0 -0.861170470714569092 -0 1 -0
-0.535179674625396729 0 -0.0100069120526313782 -0 1 -0
-0.330981642007827759 0 0.313642650842666626 -0 1 -0
-0.450653195381164551 0 0.232998937368392944 -0 1 -0
-0.857335388660430908 0 0.806944549083709717 -0 1 -0
0.228255078196525574 0 -0.735648810863494873 -0 1 -0
-0.374723672866821289 0 -0.474398761987686157 -0 1 -0
-0.801803827285766602 0 -0.810385167598724365 -0 1 -0
-0.480035334825515747 0 -0.0539477579295635223 -0 1 -0
-0.237471908330917358 0 0.00375151494517922401 -0 1 -0
-0.911745190620422363 0 0.520625531673431396 -0 1 -0
-0.798497796058654785 0 0.351501047611236572 -0 1 -0
0.271488457918167114 0 -0.819498777389526367 -0 1 -0
-0.34785991907119751 0 0.180092081427574158 -0 1 -0
-0.151010319590568542 0 -0.46072685718536377 -0 1 -0
-0.0830813348293304443 0 -0.91739344596862793 -0 1 -0
-0.927483081817626953 0 -0.222777202725410461 -0 1 -0
-0.982521772384643555 0 -0.2300843745470047 -0 1 -0
-0.610955774784088135 0 -0.906416058540344238 -0 1 -0
0.110634326934814453 0 -0.932655274868011475 -0 1 -0
-0.85496211051940918 0 -0.24000762403011322 -0 1 -0
-0.900498807430267334 0 0.400463730096817017 -0 1 -0
-0.821263790130615234 0 -0.958253979682922363 -0 1 -0
-0.592299103736877441 0 -0.114388652145862579 -0 1 -0
-0.76936417818069458 0 0.291465401649475098 -0 1 -0
-0.167900070548057556 0 -0.207895338535308838 -0 1 -0
-0.627503335475921631 0 -0.710713863372802734 -0 1 -0
0.198832184076309204 0 -0.451531410217285156 -0 1 -0
-0.604957222938537598 0 -0.752409875392913818 -0 1 -0
-0.423932760953903198 0 0.282381117343902588 -0 1 -0
-0.815975964069366455 0 -0.450955837965011597 -0 1 -0
-0.758184075355529785 0 -0.0668505951762199402 -0 1 -0
-0.488045573234558105 0 0.323885262012481689 -0 1 -0
-0.751903355121612549 0 -0.785437524318695068 -0 1 -0
-0.571413815021514893 0 0.227129504084587097 -0 1 -0
0.175680369138717651 0 -0.909842967987060547 -0 1 -0
-0.306885331869125366 0 -0.726585507392883301 -0 1 -0
0.658326327800750732 0 -0.725149035453796387 -0 1 -0
-0.395234286785125732 0 0.173142507672309875 -0 1 -0
0.150440484285354614 0 -0.428138196468353271 -0 1 -0
-0.764393985271453857 0 -0.45536339282989502 -0 1 -0
0.0541745647788047791 0 -0.309523850679397583 -0 1 -0
-0.431721121072769165 0 0.330708444118499756 -0 1 -0
-0.27966153621673584 0 -0.893235206604003906 -0 1 -0
0.150122851133346558 0 -0.748124957084655762 -0 1 -0
-0.300239920616149902 0 -0.124279797077178955 -0 1 -0
-0.840669989585876465 0 -0.123576343059539795 -0 1 -0
0.451517760753631592 0 -0.765568256378173828 -0 1 -0
-0.997409522533416748 0 -0.0587266609072685242 -0 1 -0
-0.392369478940963745 0 -0.858117043972015381 -0 1 -0
-0.243103384971618652 0 -0.670190751552581787 -0 1 -0
-0.737532615661621094 0 0.450647681951522827 -0 1 -0
0.398627310991287231 0 -0.66250985860824585 -0 1 -0
-0.553621172904968262 0 0.508522629737854004 -0 1 -0
-0.162340044975280762 0 -0.847714722156524658 -0 1 -0
-0.107033155858516693 0 -0.497184693813323975 -0 1 -0
-0.959434330463409424 0 -0.555048704147338867 -0 1 -0
-0.316391110420227051 0 -0.480781316757202148 -0 1 -0
-0.630855798721313477 0 -0.231819316744804382 -0 1 -0
-0.597146928310394287 0 0.108258336782455444 -0 1 -0
-0.62748032808303833 0 0.334487855434417725 -0 1 -0
-0.983778119087219238 0 0.982581913471221924 -0 1 -0
-0.716952860355377197 0 0.141307905316352844 -0 1 -0
-0.247157841920852661 0 0.22353595495223999 -0 1 -0
-0.130766168236732483 0 -0.247699514031410217 -0 1 -0
-0.25316464900970459 0 -0.314622819423675537 -0 1 -0
-0.656024515628814697 0 0.138778015971183777 -0 1 -0
0.322742044925689697 0 -0.83075249195098877 -0 1 -0
-0.46742480993270874 0 -0.272038727998733521 -0 1 -0
0.176387622952461243 0 -0.204414516687393188 -0 1 -0
-0.968835294246673584 0 -0.329746514558792114 -0 1 -0
-0.0549039468169212341 0 -0.271528542041778564 -0 1 -0
0.0404133014380931854 0 -0.7044106125831604 -0 1 -0
-0.484325140714645386 0 -0.565727710723876953 -0 1 -0
-0.192310109734535217 0 -0.40842244029045105 -0 1 -0
-0.868457973003387451 0 0.446805328130722046 -0 1 -0
0.292885035276412964 0 -0.615154862403869629 -0 1 -0
-0.335500031709671021 0 0.0618472620844841003 -0 1 -0
0.549000263214111328 0 -0.656816661357879639 -0 1 -0
-0.641007781028747559 0 0.0693004578351974487 -0 1 -0
-0.554087221622467041 0 0.461790531873703003 -0 1 -0
0.368784487247467041 0 -0.39300808310508728 -0 1 -0
0.196100428700447083 0 -0.61236870288848877 -0 1 -0
0.209535673260688782 0 -0.6683388352394104 -0 1 -0
-0.606161177158355713 0 0.426690161228179932 -0 1 -0
-0.677353382110595703 0 0.322879046201705933 -0 1 -0
-0.787367820739746094 0 -0.904120087623596191 -0 1 -0
-0.347561508417129517 0 -0.5231972336769104 -0 1 -0
0.593175292015075684 0 -0.724069714546203613 -0 1 -0
-0.954235851764678955 0 0.437415450811386108 -0 1 -0
-0.871837019920349121 0 -0.476487338542938232 -0 1 -0
-0.326811671257019043 0 0.00957953836768865585 -0 1 -0
-0.644206643104553223 0 -0.0105163492262363434 -0 1 -0
-0.452954590320587158 0 -0.331202924251556396 -0 1 -0
0.314882874488830566 0 -0.403404295444488525 -0 1 -0
0.126761198043823242 0 -0.53640061616897583 -0 1 -0
-0.497995644807815552 0 -0.40413975715637207 -0 1 -0
0.103233076632022858 0 -0.680560171604156494 -0 1 -0
-0.322901338338851929 0 -0.601284384727478027 -0 1 -0
-0.795913934707641602 0 -0.634733796119689941 -0 1 -0
-0.0311024263501167297 0 -0.803826391696929932 -0 1 -0
-0.50275653600692749 0 -0.22138640284538269 -0 1 -0
-0.459766626358032227 0 0.0806333273649215698 -0 1 -0
0.10027969628572464 0 -0.771983861923217773 -0 1 -0
-0.816094517707824707 0 0.0641199052333831787 -0 1 -0
0.554497241973876953 0 -0.850311577320098877 -0 1 -0
-0.687140166759490967 0 0.422458440065383911 -0 1 -0
-0.865435957908630371 0 0.119737260043621063 -0 1 -0
0.254457563161849976 0 -0.51447594165802002 -0 1 -0
-0.391249865293502808 0 -0.200563699007034302 -0 1 -0
-0.757425129413604736 0 -0.734537839889526367 -0 1 -0
-0.964740991592407227 0 0.719687938690185547 -0 1 -0
0.333219528198242188 0 -0.9458351731300354 -0 1 -0
-0.126214325428009033 0 -0.946263551712036133 -0 1 -0
-0.716021299362182617 0 -0.607877373695373535 -0 1 -0
-0.215484902262687683 0 -0.85872119665145874 -0 1 -0
-0.872408926486968994 0 0.291476994752883911 -0 1 -0
0.424262106418609619 0 -0.478803187608718872 -0 1 -0
-0.873099148273468018 0 -0.869934022426605225 -0 1 -0
0.935644149780273438 0 -0.956668317317962646 -0 1 -0
-0.241363078355789185 0 0.118947871029376984 -0 1 -0
-0.634709656238555908 0 -0.478384196758270264 -0 1 -0
0.0163749214261770248 0 -0.839628934860229492 -0 1 -0
-0.648808181285858154 0 -0.629838347434997559 -0 1 -0
-0.826728343963623047 0 0.609661698341369629 -0 1 -0
0.0826748013496398926 0 -0.86382061243057251 -0 1 -0
-0.920671939849853516 0 0.916877031326293945 -0 1 -0
-0.592818021774291992 0 -0.547868549823760986 -0 1 -0
0.824571430683135986 0 -0.895946264266967773 -0 1 -0
0.14720618724822998 0 -0.246261149644851685 -0 1 -0
-0.82841646671295166 0 0.256849586963653564 -0 1 -0
-0.253999292850494385 0 -0.523652732372283936 -0 1 -0
-0.769576132297515869 0 0.0725953429937362671 -0 1 -0
-0.945181906223297119 0 -0.172875717282295227 -0 1 -0
-0.604971587657928467 0 0.0360489971935749054 -0 1 -0
-0.792114436626434326 0 -0.115240886807441711 -0 1 -0
-0.396506339311599731 0 -0.119759410619735718 -0 1 -0
-0.0494222007691860199 0 -0.633897364139556885 -0 1 -0
-0.537588894367218018 0 0.278796792030334473 -0 1 -0
-0.974039614200592041 0 0.135529428720474243 -0 1 -0
-0.208539441227912903 0 -0.264704912900924683 -0 1 -0
-0.643136739730834961 0 0.184027791023254395 -0 1 -0
-0.977553486824035645 0 -0.738383054733276367 -0 1 -0
0.158721983432769775 0 -0.370790719985961914 -0 1 -0
-0.204008489847183228 0 -0.493777245283126831 -0 1 -0
-0.359220385551452637 0 -0.68202972412109375 -0 1 -0
-0.899235069751739502 0 0.0221856366842985153 -0 1 -0
-0.884015440940856934 0 -0.422898441553115845 -0 1 -0
0.36661490797996521 0 -0.748825907707214355 -0 1 -0
-0.732705116271972656 0 -0.651712119579315186 -0 1 -0
-0.659086346626281738 0 -0.0961487367749214172 -0 1 -0
0.0191708188503980637 0 -0.886145055294036865 -0 1 -0
-0.444289833307266235 0 0.177140623331069946 -0 1 -0
-0.154780372977256775 0 0.0747098624706268311 -0 1 -0
-0.821441352367401123 0 -0.00763882370665669441 -0 1 -0
-0.0454521700739860535 0 -0.113195449113845825 -0 1 -0
-0.244331717491149902 0 -0.929937243461608887 -0 1 -0
0.853729486465454102 0 -0.951323866844177246 -0 1 -0
0.486428529024124146 0 -0.696109175682067871 -0 1 -0
-0.448733538389205933 0 -0.472176343202590942 -0 1 -0
-0.499673932790756226 0 0.197500318288803101 -0 1 -0
-0.865410387516021729 0 0.665000379085540771 -0 1 -0
-0.129640474915504456 0 -0.408646345138549805 -0 1 -0
-0.226494506001472473 0 -0.619891762733459473 -0 1 -0
-0.527474284172058105 0 -0.266316264867782593 -0 1 -0
0.273965537548065186 0 -0.373809099197387695 -0 1 -0
-0.673251926898956299 0 -0.512646198272705078 -0 1 -0
-0.966285049915313721 0 0.939347028732299805 -0 1 -0
-0.0408793799579143524 0 -0.851037859916687012 -0 1 -0
-0.775754570960998535 0 -0.160834044218063354 -0 1 -0
0.0807609409093856812 0 -0.461172312498092651 -0 1 -0
-0.486284554004669189 0 0.0163438990712165833 -0 1 -0
0.15394061803817749 0 -0.691356480121612549 -0 1 -0
-0.902453184127807617 0 0.768511533737182617 -0 1 -0
0.804893910884857178 0 -0.995197415351867676 -0 1 -0
-0.874295413494110107 0 -0.530960619449615479 -0 1 -0
-0.0281002707779407501 0 -0.350508719682693481 -0 1 -0
-0.502199053764343262 0 0.107940003275871277 -0 1 -0
-0.958627045154571533 0 -0.44031834602355957 -0 1 -0
-0.515579700469970703 0 -0.149485349655151367 -0 1 -0
-0.447131514549255371 0 0.376389235258102417 -0 1 -0
-0.318229854106903076 0 0.259639441967010498 -0 1 -0
-0.0776428133249282837 0 -0.334795176982879639 -0 1 -0
-0.598316490650177002 0 -0.826070725917816162 -0 1 -0
-0.900635123252868652 0 0.8633919358253479 -0 1 -0
0.28225409984588623 0 -0.567664444446563721 -0 1 -0
0.0378093719482421875 0 -0.760240316390991211 -0 1 -0
0.110073313117027283 0 -0.283885359764099121 -0 1 -0
0.236511766910552979 0 -0.782403349876403809 -0 1 -0
-0.375063061714172363 0 -0.0607437416911125183 -0 1 -0
-0.93917769193649292 0 -0.0607877075672149658 -0 1 -0
-0.189431518316268921 0 -0.943679153919219971 -0 1 -0
0.0907496362924575806 0 -0.376969188451766968 -0 1 -0
0.109069064259529114 0 -0.82272028923034668 -0 1 -0
-0.384196192026138306 0 0.0405676551163196564 -0 1 -0
-0.44436180591583252 0 -0.145204544067382812 -0 1 -0
-0.707541823387145996 0 -0.248926267027854919 -0 1 -0
-0.907465577125549316 0 -0.364601552486419678 -0 1 -0
-0.907347559928894043 0 -0.931600451469421387 -0 1 -0
-0.321838796138763428 0 -0.918240249156951904 -0 1 -0
-0.338856279850006104 0 -0.867098689079284668 -0 1 -0
-0.854044139385223389 0 -0.0593286454677581787 -0 1 -0
0.242523133754730225 0 -0.614235103130340576 -0 1 -0
-0.295954763889312744 0 -0.96160358190536499 -0 1 -0
-0.372665494680404663 0 0.292646795511245728 -0 1 -0
-0.352146625518798828 0 -0.148679733276367188 -0 1 -0
0.246294513344764709 0 -0.294510960578918457 -0 1 -0
-0.761186480522155762 0 -0.513888657093048096 -0 1 -0
-0.156504109501838684 0 -0.106980688869953156 -0 1 -0
-0.0713407769799232483 0 -0.729376733303070068 -0 1 -0
-0.248807653784751892 0 -0.985566139221191406 -0 1 -0
-0.99606853723526001 0 0.682955086231231689 -0 1 -0
-0.353614985942840576 0 -0.98195493221282959 -0 1 -0
-0.50351417064666748 0 -0.681288480758666992 -0 1 -0
-0.0873777046799659729 0 0.0211120042949914932 -0 1 -0
0.444891512393951416 0 -0.556293249130249023 -0 1 -0
-0.133474096655845642 0 -0.641655504703521729 -0 1 -0
0.100231900811195374 0 -0.151163622736930847 -0 1 -0
-0.667986869812011719 0 0.658700883388519287 -0 1 -0
-0.982457637786865234 0 0.523223757743835449 -0 1 -0
-0.0843445584177970886 0 -0.582403302192687988 -0 1 -0
-0.843937158584594727 0 -0.39049956202507019 -0 1 -0
0.218093261122703552 0 -0.957122802734375 -0 1 -0
-0.583523273468017578 0 0.284785926342010498 -0 1 -0
0.322527259588241577 0 -0.694089353084564209 -0 1 -0
-0.940666913986206055 0 -0.897101163864135742 -0 1 -0
-0.00699086533859372139 0 -0.933009445667266846 -0 1 -0
-0.832711994647979736 0 -0.68018496036529541 -0 1 -0
-0.00951020047068595886 0 -0.683081984519958496 -0 1 -0
-0.745210170745849609 0 0.244114264845848083 -0 1 -0
-0.422792881727218628 0 -0.798719286918640137 -0 1 -0
-0.451657474040985107 0 -0.840749025344848633 -0 1 -0
-0.786886096000671387 0 -0.575693011283874512 -0 1 -0
0.515454351902008057 0 -0.800972163677215576 -0 1 -0
0.0563127882778644562 0 -0.122998781502246857 -0 1 -0
-0.193491563200950623 0 0.159322753548622131 -0 1 -0
-0.77418208122253418 0 0.591467618942260742 -0 1 -0
-0.217662215232849121 0 -0.154201775789260864 -0 1 -0
-0.44802054762840271 0 -0.961536765098571777 -0 1 -0
-0.777703523635864258 0 -0.21017850935459137 -0 1 -0
0.633532226085662842 0 -0.84973442554473877 -0 1 -0
-0.12608453631401062 0 -0.770628452301025391 -0 1 -0
-0.555693209171295166 0 0.0710202679038047791 -0 1 -0
-0.15904216468334198 0 -0.307289272546768188 -0 1 -0
-0.548972487449645996 0 -0.404009252786636353 -0 1 -0
-0.932665348052978516 0 0.637929975986480713 -0 1 -0
-0.851253390312194824 0 -0.288844525814056396 -0 1 -0
-0.765822708606719971 0 0.013793489895761013 -0 1 -0
-0.675484180450439453 0 0.544034600257873535 -0 1 -0
-0.646897554397583008 0 0.506687164306640625 -0 1 -0
-0.943904519081115723 0 0.564205586910247803 -0 1 -0
-0.683881580829620361 0 0.468425124883651733 -0 1 -0
-0.996723949909210205 0 0.25934329628944397 -0 1 -0
-0.936044514179229736 0 -0.116853110492229462 -0 1 -0
-0.312679827213287354 0 -0.184090763330459595 -0 1 -0
0.786088109016418457 0 -0.933937311172485352 -0 1 -0
-0.926679670810699463 0 -0.73168259859085083 -0 1 -0
-0.925244927406311035 0 -0.683142304420471191 -0 1 -0
-0.411874562501907349 0 -0.277344256639480591 -0 1 -0
-0.852824509143829346 0 0.7200278639793396 -0 1 -0
-0.38118290901184082 0 -0.327062934637069702 -0 1 -0
-0.440200924873352051 0 0.0356288924813270569 -0 1 -0
0.0348097309470176697 0 0.581992447376251221 -0 1 -0
-0.205234616994857788 0 0.975204110145568848 -0 1 -0
-0.161773055791854858 0 0.25339818000793457 -0 1 -0
-0.0552311763167381287 0 0.290504246950149536 -0 1 -0
0.960737407207489014 0 -0.434745311737060547 -0 1 -0
0.679893791675567627 0 0.580121457576751709 -0 1 -0
0.327809154987335205 0 0.0810875222086906433 -0 1 -0
-0.612254440784454346 0 0.638025641441345215 -0 1 -0
0.822691380977630615 0 0.0876117050647735596 -0 1 -0
0.129671484231948853 0 0.256463348865509033 -0 1 -0
0.829682111740112305 0 0.852652966976165771 -0 1 -0
-0.294188499450683594 0 0.931386768817901611 -0 1 -0
-0.564571022987365723 0 0.66986691951751709 -0 1 -0
0.584897518157958984 0 0.822912216186523438 -0 1 -0
0.742117524147033691 0 -0.588797390460968018 -0 1 -0
0.881050050258636475 0 -0.314447402954101562 -0 1 -0
0.57778775691986084 0 -0.0582149773836135864 -0 1 -0
0.768961787223815918 0 -0.200900062918663025 -0 1 -0
0.0722102150321006775 0 0.144513532519340515 -0 1 -0
0.526290059089660645 0 -0.00141100538894534111 -0 1 -0
0.360826492309570312 0 0.708280026912689209 -0 1 -0
0.0953430682420730591 0 0.000384987739380449057 -0 1 -0
0.505501627922058105 0 0.0447205640375614166 -0 1 -0
-0.00955835916101932526 0 0.614398598670959473 -0 1 -0
-0.934030711650848389 0 0.981814026832580566 -0 1 -0
0.238976627588272095 0 0.0366732291877269745 -0 1 -0
0.900182902812957764 0 0.0830327495932579041 -0 1 -0
0.763846397399902344 0 -0.69944387674331665 -0 1 -0
0.400940865278244019 0 0.751664638519287109 -0 1 -0
0.0904793068766593933 0 0.600281596183776855 -0 1 -0
0.826399564743041992 0 0.209610015153884888 -0 1 -0
-0.164506524801254272 0 0.829462110996246338 -0 1 -0
0.686522603034973145 0 -0.116607725620269775 -0 1 -0
-0.321445316076278687 0 0.696906149387359619 -0 1 -0
0.740529656410217285 0 0.204374432563781738 -0 1 -0
0.32402309775352478 0 0.966947376728057861 -0 1 -0
0.83625948429107666 0 -0.703230619430541992 -0 1 -0
0.252890735864639282 0 0.118631474673748016 -0 1 -0
0.965013802051544189 0 -0.379676342010498047 -0 1 -0
0.503285646438598633 0 -0.342441558837890625 -0 1 -0
0.0155112007632851601 0 0.716665506362915039 -0 1 -0
0.30617368221282959 0 -0.0606823861598968506 -0 1 -0
-0.271061360836029053 0 0.651697337627410889 -0 1 -0
0.790935695171356201 0 0.275921851396560669 -0 1 -0
-0.763326168060302734 0 0.849332034587860107 -0 1 -0
0.317499399185180664 0 0.252896726131439209 -0 1 -0
0.639249086380004883 0 0.529339075088500977 -0 1 -0
0.234944313764572144 0 -0.116233877837657928 -0 1 -0
0.411084651947021484 0 0.00682368502020835876 -0 1 -0
-0.0244895834475755692 0 0.748534083366394043 -0 1 -0
-0.508269011974334717 0 0.864795506000518799 -0 1 -0
0.353577136993408203 0 0.425791800022125244 -0 1 -0
-0.56285172700881958 0 0.868355214595794678 -0 1 -0
0.872041225433349609 0 -0.643938183784484863 -0 1 -0
0.385979026556015015 0 0.581395745277404785 -0 1 -0
0.501569807529449463 0 -0.1736440509557724 -0 1 -0
0.334824949502944946 0 0.670938074588775635 -0 1 -0
0.944280385971069336 0 -0.73560631275177002 -0 1 -0
0.531119883060455322 0 0.251887708902359009 -0 1 -0
0.990496575832366943 0 -0.249917015433311462 -0 1 -0
0.869486033916473389 0 0.462706953287124634 -0 1 -0
0.944211602210998535 0 -0.480963379144668579 -0 1 -0
0.172552645206451416 0 0.884791076183319092 -0 1 -0
-0.0684555470943450928 0 0.351116359233856201 -0 1 -0
-0.29767802357673645 0 0.765493631362915039 -0 1 -0
-0.0368512608110904694 0 0.878018558025360107 -0 1 -0
0.714658200740814209 0 0.258763104677200317 -0 1 -0
0.763553142547607422 0 0.681969404220581055 -0 1 -0
0.605227828025817871 0 0.256770163774490356 -0 1 -0
0.458135128021240234 0 0.803731143474578857 -0 1 -0
0.849598169326782227 0 0.591610848903656006 -0 1 -0
-0.114425167441368103 0 0.777609944343566895 -0 1 -0
0.0771712362766265869 0 0.321019649505615234 -0 1 -0
0.44868895411491394 0 0.738204061985015869 -0 1 -0
0.335288345813751221 0 0.361247837543487549 -0 1 -0
-0.432599842548370361 0 0.52663123607635498 -0 1 -0
-0.396448493003845215 0 0.917691528797149658 -0 1 -0
0.148684650659561157 0 0.179621338844299316 -0 1 -0
-0.509224236011505127 0 0.637236535549163818 -0 1 -0
0.999864459037780762 0 -0.709736108779907227 -0 1 -0
-0.311105549335479736 0 0.411042183637619019 -0 1 -0
-0.211751937866210938 0 0.465314954519271851 -0 1 -0
0.666903197765350342 0 -0.213698551058769226 -0 1 -0
0.283494651317596436 0 0.306845188140869141 -0 1 -0
0.247290268540382385 0 0.604753732681274414 -0 1 -0
0.746816396713256836 0 0.0392797514796257019 -0 1 -0
0.562951624393463135 0 0.674107670783996582 -0 1 -0
0.625256538391113281 0 0.636243999004364014 -0 1 -0
-0.164095014333724976 0 0.429959893226623535 -0 1 -0
0.550433099269866943 0 0.549517691135406494 -0 1 -0
-0.0933608412742614746 0 0.602199673652648926 -0 1 -0
0.257674217224121094 0 0.400419145822525024 -0 1 -0
0.73470461368560791 0 0.580505430698394775 -0 1 -0
-0.392460912466049194 0 0.399188995361328125 -0 1 -0
0.873214960098266602 0 0.658609449863433838 -0 1 -0
0.00100226630456745625 0 0.351547271013259888 -0 1 -0
0.228207722306251526 0 0.95375823974609375 -0 1 -0
0.344938039779663086 0 0.922332942485809326 -0 1 -0
0.58190542459487915 0 0.743854224681854248 -0 1 -0
0.98999333381652832 0 -0.624625861644744873 -0 1 -0
0.508257210254669189 0 0.485705435276031494 -0 1 -0
0.0260232910513877869 0 0.78770148754119873 -0 1 -0
0.211526423692703247 0 0.733906030654907227 -0 1 -0
0.459587335586547852 0 0.024935280904173851 -0 1 -0
0.696366667747497559 0 0.954990506172180176 -0 1 -0
0.556477963924407959 0 0.608531773090362549 -0 1 -0
0.765491008758544922 0 0.46368110179901123 -0 1 -0
-0.0431311503052711487 0 0.498215079307556152 -0 1 -0
-0.667807161808013916 0 0.74389880895614624 -0 1 -0
0.360709965229034424 0 -0.322658181190490723 -0 1 -0
0.461126446723937988 0 0.176411569118499756 -0 1 -0
-0.661589205265045166 0 0.933650374412536621 -0 1 -0
0.785244166851043701 0 -0.558426022529602051 -0 1 -0
0.52005237340927124 0 0.81694716215133667 -0 1 -0
0.504800379276275635 0 0.37092214822769165 -0 1 -0
0.305909395217895508 0 -0.222635239362716675 -0 1 -0
0.299328535795211792 0 0.559994280338287354 -0 1 -0
0.650711596012115479 0 0.93424522876739502 -0 1 -0
0.328089296817779541 0 -0.284314990043640137 -0 1 -0
-0.885408461093902588 0 0.94795072078704834 -0 1 -0
0.461291104555130005 0 -0.27140510082244873 -0 1 -0
0.317515313625335693 0 0.884473323822021484 -0 1 -0
0.996630728244781494 0 0.273370116949081421 -0 1 -0
0.0346895381808280945 0 0.289806455373764038 -0 1 -0
0.899112999439239502 0 -0.760809540748596191 -0 1 -0
0.724026739597320557 0 -0.0799308344721794128 -0 1 -0
0.627515792846679688 0 0.998460888862609863 -0 1 -0
-0.271400988101959229 0 0.304901331663131714 -0 1 -0
0.634562492370605469 0 0.734413802623748779 -0 1 -0
0.48163074254989624 0 0.612267196178436279 -0 1 -0
0.194030985236167908 0 -0.156978651881217957 -0 1 -0
-0.549093246459960938 0 0.950410187244415283 -0 1 -0
0.593734145164489746 0 -0.189504802227020264 -0 1 -0
-0.212927058339118958 0 0.591543674468994141 -0 1 -0
-0.260977506637573242 0 0.381461739540100098 -0 1 -0
0.682584643363952637 0 0.0331655852496623993 -0 1 -0
0.147742271423339844 0 0.643501222133636475 -0 1 -0
-0.303071498870849609 0 0.81807398796081543 -0 1 -0
0.805659115314483643 0 0.342704147100448608 -0 1 -0
0.0395123809576034546 0 0.0783895328640937805 -0 1 -0
0.837592184543609619 0 -0.00865047890692949295 -0 1 -0
-0.515776693820953369 0 0.757154762744903564 -0 1 -0
-0.448841631412506104 0 0.803082108497619629 -0 1 -0
0.627999603748321533 0 -0.408196926116943359 -0 1 -0
-0.452347785234451294 0 0.887827813625335693 -0 1 -0
0.139636427164077759 0 0.848217606544494629 -0 1 -0
-0.185470223426818848 0 0.761045634746551514 -0 1 -0
0.432427555322647095 0 -0.327707380056381226 -0 1 -0
0.799032747745513916 0 0.576475441455841064 -0 1 -0
0.671420931816101074 0 0.422088205814361572 -0 1 -0
0.873443484306335449 0 0.350258558988571167 -0 1 -0
0.350541859865188599 0 0.761593461036682129 -0 1 -0
0.977369308471679688 0 -0.909447371959686279 -0 1 -0
0.467351794242858887 0 0.96083378791809082 -0 1 -0
-0.80447310209274292 0 0.968166708946228027 -0 1 -0
0.257527947425842285 0 0.527700543403625488 -0 1 -0
-0.374042987823486328 0 0.576797962188720703 -0 1 -0
0.0851573571562767029 0 0.239670395851135254 -0 1 -0
0.60958176851272583 0 0.382451623678207397 -0 1 -0
-0.332015812397003174 0 0.999392330646514893 -0 1 -0
0.910246968269348145 0 -0.1585407555103302 -0 1 -0
0.738618373870849609 0 0.514765620231628418 -0 1 -0
0.117496870458126068 0 0.55605924129486084 -0 1 -0
0.670135080814361572 0 -0.663181185722351074 -0 1 -0
0.971230506896972656 0 0.313330143690109253 -0 1 -0
-0.112866640090942383 0 0.86832660436630249 -0 1 -0
-0.281752109527587891 0 0.484772711992263794 -0 1 -0
0.299572020769119263 0 -0.160780459642410278 -0 1 -0
0.0185489729046821594 0 0.666124224662780762 -0 1 -0
0.704894602298736572 0 0.633961617946624756 -0 1 -0
-0.213165789842605591 0 0.815164923667907715 -0 1 -0
0.84111255407333374 0 -0.58986276388168335 -0 1 -0
-0.12700924277305603 0 0.930435478687286377 -0 1 -0
0.832491815090179443 0 -0.534419655799865723 -0 1 -0
0.544471919536590576 0 -0.148990392684936523 -0 1 -0
0.0932195112109184265 0 0.728503942489624023 -0 1 -0
-0.221480801701545715 0 0.671113252639770508 -0 1 -0
0.381735533475875854 0 0.63666766881942749 -0 1 -0
-0.741838634014129639 0 0.802614808082580566 -0 1 -0
0.956108033657073975 0 0.617992937564849854 -0 1 -0
-0.61679154634475708 0 0.755265235900878906 -0 1 -0
0.990450382232666016 0 0.530200719833374023 -0 1 -0
-0.323227912187576294 0 0.861351191997528076 -0 1 -0
0.719124674797058105 0 0.420688718557357788 -0 1 -0
0.352489352226257324 0 -0.189868807792663574 -0 1 -0
-0.277864784002304077 0 0.720085680484771729 -0 1 -0
0.205074816942214966 0 0.579900443553924561 -0 1 -0
0.594080686569213867 0 -0.351113498210906982 -0 1 -0
-0.227684676647186279 0 0.281140953302383423 -0 1 -0
0.411526203155517578 0 0.323236256837844849 -0 1 -0
0.0356078855693340302 0 -0.025178961455821991 -0 1 -0
-0.317259281873703003 0 0.573515951633453369 -0 1 -0
0.723092496395111084 0 -0.672086954116821289 -0 1 -0
0.992642641067504883 0 0.0111755579710006714 -0 1 -0
0.321039974689483643 0 0.61963421106338501 -0 1 -0
0.56088334321975708 0 0.118269301950931549 -0 1 -0
0.594089210033416748 0 0.567358493804931641 -0 1 -0
0.507656276226043701 0 0.65370863676071167 -0 1 -0
-0.196070373058319092 0 0.872591674327850342 -0 1 -0
0.665875673294067383 0 -0.50008082389831543 -0 1 -0
0.796279728412628174 0 -0.789778709411621094 -0 1 -0
0.955443382263183594 0 0.795502722263336182 -0 1 -0
-0.369605273008346558 0 0.641024470329284668 -0 1 -0
0.935970783233642578 0 0.754393696784973145 -0 1 -0
0.832637310028076172 0 -0.123861469328403473 -0 1 -0
0.178813472390174866 0 0.273361951112747192 -0 1 -0
-0.0454950816929340363 0 0.0552430860698223114 -0 1 -0
-0.628807365894317627 0 0.694658577442169189 -0 1 -0
0.142778709530830383 0 -0.128642454743385315 -0 1 -0
0.576830804347991943 0 -0.418527722358703613 -0 1 -0
0.036552969366312027 0 0.476221799850463867 -0 1 -0
0.611325979232788086 0 0.322710216045379639 -0 1 -0
0.0507242381572723389 0 0.405240774154663086 -0 1 -0
0.524039626121520996 0 0.762114286422729492 -0 1 -0
-0.404910087585449219 0 0.709706366062164307 -0 1 -0
-0.739355087280273438 0 0.906565308570861816 -0 1 -0
0.683999061584472656 0 0.0948191136121749878 -0 1 -0
0.579722881317138672 0 0.0624003484845161438 -0 1 -0
-0.0289649609476327896 0 0.170620948076248169 -0 1 -0
0.583080470561981201 0 0.500888943672180176 -0 1 -0
0.430632323026657104 0 0.606415867805480957 -0 1 -0
0.802436470985412598 0 0.508323013782501221 -0 1 -0
0.40339583158493042 0 0.528065800666809082 -0 1 -0
-0.417389929294586182 0 0.765327870845794678 -0 1 -0
-0.247730299830436707 0 0.784719586372375488 -0 1 -0
0.728992938995361328 0 0.86400139331817627 -0 1 -0
0.625708162784576416 0 -0.297324568033218384 -0 1 -0
0.183137059211730957 0 -0.0515973642468452454 -0 1 -0
0.95451277494430542 0 -0.216503798961639404 -0 1 -0
-0.350685268640518188 0 0.491872429847717285 -0 1 -0
0.426278233528137207 0 0.485231369733810425 -0 1 -0
0.492487549781799316 0 0.133524328470230103 -0 1 -0
0.847300410270690918 0 0.254347890615463257 -0 1 -0
0.836604773998260498 0 -0.427553296089172363 -0 1 -0
-0.105655267834663391 0 0.487318366765975952 -0 1 -0
0.611461818218231201 0 0.457121759653091431 -0 1 -0
-0.0463176965713500977 0 0.453067153692245483 -0 1 -0
0.95456230640411377 0 -0.591321706771850586 -0 1 -0
0.628355741500854492 0 -0.245372146368026733 -0 1 -0
-0.802918851375579834 0 0.877818584442138672 -0 1 -0
0.667215585708618164 0 -0.375628679990768433 -0 1 -0
0.857324421405792236 0 -0.370594233274459839 -0 1 -0
-0.114160537719726562 0 0.166769355535507202 -0 1 -0
0.682230591773986816 0 0.682577371597290039 -0 1 -0
-0.405728846788406372 0 0.826057195663452148 -0 1 -0
0.715148448944091797 0 -0.0300148557871580124 -0 1 -0
0.419464349746704102 0 -0.228487178683280945 -0 1 -0
0.699054241180419922 0 -0.537466347217559814 -0 1 -0
0.732523560523986816 0 0.80452120304107666 -0 1 -0
-0.318575382232666016 0 0.649418771266937256 -0 1 -0
0.149958938360214233 0 -0.0130055099725723267 -0 1 -0
0.413322657346725464 0 0.939492285251617432 -0 1 -0
0.691837847232818604 0 0.898341000080108643 -0 1 -0
-0.584511160850524902 0 0.91290515661239624 -0 1 -0
0.599384307861328125 0 0.957481801509857178 -0 1 -0
0.998603880405426025 0 0.583566546440124512 -0 1 -0
0.918767273426055908 0 0.977342784404754639 -0 1 -0
0.774188697338104248 0 -0.0812338143587112427 -0 1 -0
-0.652809560298919678 0 0.79673236608505249 -0 1 -0
0.959183335304260254 0 0.883390605449676514 -0 1 -0
0.754490256309509277 0 0.94047093391418457 -0 1 -0
0.463533580303192139 0 0.403911113739013672 -0 1 -0
0.355164587497711182 0 0.163284897804260254 -0 1 -0
0.300394833087921143 0 0.782766938209533691 -0 1 -0
0.876684725284576416 0 -0.513060212135314941 -0 1 -0
0.373949706554412842 0 0.967152595520019531 -0 1 -0
0.512801587581634521 0 -0.297231197357177734 -0 1 -0
0.483566850423812866 0 -0.0565518029034137726 -0 1 -0
0.957851588726043701 0 0.0538717247545719147 -0 1 -0
0.813956618309020996 0 0.944179892539978027 -0 1 -0
0.795797288417816162 0 0.817171394824981689 -0 1 -0
0.90016704797744751 0 0.606345534324645996 -0 1 -0
0.916414082050323486 0 -0.09700746089220047 -0 1 -0
0.175432384014129639 0 0.815224826335906982 -0 1 -0
-0.791965723037719727 0 0.812992513179779053 -0 1 -0
-0.174339190125465393 0 0.62423175573348999 -0 1 -0
-0.226880118250846863 0 0.726163506507873535 -0 1 -0
-0.332460790872573853 0 0.361622154712677002 -0 1 -0
-0.113570570945739746 0 0.434421807527542114 -0 1 -0
-0.500871002674102783 0 0.585913956165313721 -0 1 -0
0.113803312182426453 0 0.786619484424591064 -0 1 -0
-0.0786087960004806519 0 0.208900794386863708 -0 1 -0
0.274768143892288208 0 0.0719337165355682373 -0 1 -0
0.995385289192199707 0 0.954681694507598877 -0 1 -0
0.902184069156646729 0 -0.867875635623931885 -0 1 -0
0.23886553943157196 0 -0.168561235070228577 -0 1 -0
0.639306187629699707 0 -0.0706154927611351013 -0 1 -0
-0.61019134521484375 0 0.962939560413360596 -0 1 -0
0.941582798957824707 0 -0.267643183469772339 -0 1 -0
0.519575059413909912 0 0.43048974871635437 -0 1 -0
0.64513397216796875 0 -0.561878323554992676 -0 1 -0
0.000469071848783642054 0 0.42512047290802002 -0 1 -0
0.922629952430725098 0 0.5024985671043396 -0 1 -0
0.435920923948287964 0 0.85214531421661377 -0 1 -0
0.305513530969619751 0 0.142411932349205017 -0 1 -0
0.237681180238723755 0 0.895549416542053223 -0 1 -0
0.77521592378616333 0 -0.747513294219970703 -0 1 -0
0.0186848118901252747 0 0.0258103236556053162 -0 1 -0
-0.6355171799659729 0 0.889270544052124023 -0 1 -0
0.629746913909912109 0 -0.15676504373550415 -0 1 -0
0.931555807590484619 0 0.399863064289093018 -0 1 -0
0.936653494834899902 0 -0.00794981699436903 -0 1 -0
0.983731567859649658 0 0.411427408456802368 -0 1 -0
0.387802094221115112 0 0.203335240483283997 -0 1 -0
-0.145171135663986206 0 0.581747174263000488 -0 1 -0
0.806722760200500488 0 0.0290750190615653992 -0 1 -0
0.736054301261901855 0 0.746991574764251709 -0 1 -0
0.516457796096801758 0 -0.409919202327728271 -0 1 -0
0.812646090984344482 0 0.73750382661819458 -0 1 -0
-0.13134177029132843 0 0.643081843852996826 -0 1 -0
0.920536279678344727 0 0.684579312801361084 -0 1 -0
0.913089156150817871 0 0.0343868359923362732 -0 1 -0
0.25742378830909729 0 -0.232253924012184143 -0 1 -0
0.975313365459442139 0 -0.670696437358856201 -0 1 -0
0.350348621606826782 0 -0.142053127288818359 -0 1 -0
0.817171394824981689 0 -0.635489523410797119 -0 1 -0
-0.428371936082839966 0 0.458010971546173096 -0 1 -0
0.651201188564300537 0 0.141106218099594116 -0 1 -0
0.794370949268341064 0 -0.396323293447494507 -0 1 -0
-0.419379204511642456 0 0.65456777811050415 -0 1 -0
-0.131682798266410828 0 0.306900471448898315 -0 1 -0
0.0725089460611343384 0 0.819564640522003174 -0 1 -0
0.512878715991973877 0 -0.491053879261016846 -0 1 -0
0.181909605860710144 0 0.0208569429814815521 -0 1 -0
0.220369741320610046 0 0.792272448539733887 -0 1 -0
0.79339444637298584 0 -0.31663280725479126 -0 1 -0
0.690139889717102051 0 -0.604487776756286621 -0 1 -0
0.980097353458404541 0 0.36019134521484375 -0 1 -0
-0.0178289823234081268 0 0.821393609046936035 -0 1 -0
-0.442269444465637207 0 0.934177398681640625 -0 1 -0
0.497572034597396851 0 0.924949765205383301 -0 1 -0
0.664311110973358154 0 0.778887033462524414 -0 1 -0
0.936646521091461182 0 0.203070029616355896 -0 1 -0
0.957402348518371582 0 -0.537851512432098389 -0 1 -0
0.425926774740219116 0 0.435798048973083496 -0 1 -0
0.0269331075251102448 0 0.204445630311965942 -0 1 -0
-0.254163742065429688 0 0.563042223453521729 -0 1 -0
0.403112888336181641 0 -0.141958624124526978 -0 1 -0
0.224981412291526794 0 0.488411903381347656 -0 1 -0
-0.165074899792671204 0 0.698053956031799316 -0 1 -0
-0.252055764198303223 0 0.959465622901916504 -0 1 -0
0.54349970817565918 0 0.341298937797546387 -0 1 -0
0.200866580009460449 0 0.661349594593048096 -0 1 -0
0.452256441116333008 0 0.677358865737915039 -0 1 -0
0.146937504410743713 0 0.968467891216278076 -0 1 -0
0.563051283359527588 0 -0.286423325538635254 -0 1 -0
0.134751006960868835 0 0.499926954507827759 -0 1 -0
0.230910763144493103 0 0.286475419998168945 -0 1 -0
0.285946547985076904 0 0.451630949974060059 -0 1 -0
0.896868646144866943 0 -0.700975358486175537 -0 1 -0
0.721495866775512695 0 -0.176384910941123962 -0 1 -0
0.170813143253326416 0 0.761147737503051758 -0 1 -0
0.973565101623535156 0 0.231644853949546814 -0 1 -0
0.894258320331573486 0 0.938362836837768555 -0 1 -0
0.473160326480865479 0 0.557176709175109863 -0 1 -0
-0.862068355083465576 0 0.90381091833114624 -0 1 -0
0.138104751706123352 0 0.692307591438293457 -0 1 -0
0.501351416110992432 0 0.204350784420967102 -0 1 -0
0.944264471530914307 0 0.146246761083602905 -0 1 -0
-0.0868891999125480652 0 0.697295129299163818 -0 1 -0
0.282513946294784546 0 0.197121858596801758 -0 1 -0
0.850851953029632568 0 -0.803926467895507812 -0 1 -0
0.777242302894592285 0 -0.502670764923095703 -0 1 -0
0.631403148174285889 0 0.681823253631591797 -0 1 -0
0.707118630409240723 0 0.350749820470809937 -0 1 -0
0.796341061592102051 0 -0.45054665207862854 -0 1 -0
-0.0933445990085601807 0 0.0943244621157646179 -0 1 -0
0.678481757640838623 0 -0.295784026384353638 -0 1 -0
-0.0656112357974052429 0 0.645040273666381836 -0 1 -0
0.0255572237074375153 0 0.843391299247741699 -0 1 -0
0.664896547794342041 0 -0.0251981392502784729 -0 1 -0
-0.48104482889175415 0 0.718482553958892822 -0 1 -0
-0.531447291374206543 0 0.713391005992889404 -0 1 -0
0.863006651401519775 0 0.0549356862902641296 -0 1 -0
0.125975474715232849 0 0.89988863468170166 -0 1 -0
0.00885580480098724365 0 0.969740211963653564 -0 1 -0
0.951252222061157227 0 0.932566821575164795 -0 1 -0
0.858978748321533203 0 0.129779219627380371 -0 1 -0
0.417966902256011963 0 0.0610462315380573273 -0 1 -0
0.618281126022338867 0 -0.488772064447402954 -0 1 -0
-0.0726829320192337036 0 0.142136186361312866 -0 1 -0
0.359317690134048462 0 -0.0153991961851716042 -0 1 -0
0.908457398414611816 0 0.891648471355438232 -0 1 -0
0.296181380748748779 0 0.725311160087585449 -0 1 -0
0.0442921333014965057 0 0.894904553890228271 -0 1 -0
0.882037222385406494 0 0.411733061075210571 -0 1 -0
-0.482527285814285278 0 0.539230525493621826 -0 1 -0
-0.0669670030474662781 0 0.804299294948577881 -0 1 -0
-0.713078022003173828 0 0.723426938056945801 -0 1 -0
-0.499580204486846924 0 0.984101235866546631 -0 1 -0
0.408203780651092529 0 0.161919534206390381 -0 1 -0
0.60757756233215332 0 0.197976872324943542 -0 1 -0
-0.124449416995048523 0 0.352747231721878052 -0 1 -0
0.420743405818939209 0 0.248597666621208191 -0 1 -0
0.471275568008422852 0 0.259090662002563477 -0 1 -0
0.242588281631469727 0 0.845086395740509033 -0 1 -0
-0.161360427737236023 0 0.478043556213378906 -0 1 -0
0.708918333053588867 0 -0.412466645240783691 -0 1 -0
0.149917140603065491 0 0.333657056093215942 -0 1 -0
-0.197966769337654114 0 0.356985151767730713 -0 1 -0
0.339972794055938721 0 0.299489885568618774 -0 1 -0
-0.255586236715316772 0 0.879280686378479004 -0 1 -0
0.379147261381149292 0 -0.0885857641696929932 -0 1 -0
0.590884029865264893 0 0.0147808259353041649 -0 1 -0
0.540284931659698486 0 -0.245315119624137878 -0 1 -0
0.904678583145141602 0 0.819749772548675537 -0 1 -0
0.48640972375869751 0 -0.219078361988067627 -0 1 -0
0.900914132595062256 0 -0.45780634880065918 -0 1 -0
-0.68540346622467041 0 0.834237635135650635 -0 1 -0
0.752290546894073486 0 -0.347406506538391113 -0 1 -0
0.738788485527038574 0 -0.129768982529640198 -0 1 -0
0.411770075559616089 0 -0.0522696822881698608 -0 1 -0
-0.677282392978668213 0 0.982372164726257324 -0 1 -0
0.828302741050720215 0 -0.0561809353530406952 -0 1 -0
0.68529510498046875 0 0.526888906955718994 -0 1 -0
0.857413113117218018 0 0.517383396625518799 -0 1 -0
0.378737390041351318 0 -0.277849555015563965 -0 1 -0
0.905580103397369385 0 -0.360573738813400269 -0 1 -0
0.790870904922485352 0 -0.157773822546005249 -0 1 -0
0.205872893333435059 0 0.405701816082000732 -0 1 -0
0.374590933322906494 0 0.252843528985977173 -0 1 -0
0.510726571083068848 0 0.30092090368270874 -0 1 -0
0.364137411117553711 0 0.499764233827590942 -0 1 -0
0.380243152379989624 0 0.883950114250183105 -0 1 -0
-0.558332145214080811 0 0.792931795120239258 -0 1 -0
-0.551557540893554688 0 0.620355606079101562 -0 1 -0
0.632669031620025635 0 0.0590339712798595428 -0 1 -0
0.953373491764068604 0 -0.828067481517791748 -0 1 -0
0.102544046938419342 0 -0.0694206207990646362 -0 1 -0
0.881722033023834229 0 -0.052442062646150589 -0 1 -0
0.737367987632751465 0 0.136511459946632385 -0 1 -0
0.115878455340862274 0 0.374524563550949097 -0 1 -0
-0.171071991324424744 0 0.201834514737129211 -0 1 -0
0.806404232978820801 0 0.661590516567230225 -0 1 -0
0.115153022110462189 0 0.0972452685236930847 -0 1 -0
0.668037772178649902 0 0.19117012619972229 -0 1 -0
0.571340680122375488 0 0.911147177219390869 -0 1 -0
0.97709190845489502 0 -0.116779960691928864 -0 1 -0
0.530588090419769287 0 0.888742148876190186 -0 1 -0
-0.36363518238067627 0 0.963439106941223145 -0 1 -0
0.7851906418800354 0 -0.250667601823806763 -0 1 -0
0.45505794882774353 0 0.341699808835983276 -0 1 -0
0.07807912677526474 0 0.525099992752075195 -0 1 -0
0.754371285438537598 0 0.314545392990112305 -0 1 -0
0.551815032958984375 0 0.192871004343032837 -0 1 -0
0.544106841087341309 0 -0.531014800071716309 -0 1 -0
-0.0628359541296958923 0 0.939566612243652344 -0 1 -0
0.675961613655090332 0 0.83187788724899292 -0 1 -0
0.936202347278594971 0 0.558821022510528564 -0 1 -0
0.211783826351165771 0 0.207058951258659363 -0 1 -0
0.96855241060256958 0 0.483049601316452026 -0 1 -0
0.543973147869110107 0 0.961342453956604004 -0 1 -0
0.185060992836952209 0 0.518524348735809326 -0 1 -0
0.885748028755187988 0 -0.216823846101760864 -0 1 -0
-0.00153572775889188051 0 0.52839052677154541 -0 1 -0
-0.416402429342269897 0 0.601071417331695557 -0 1 -0
0.247770234942436218 0 -0.0257567577064037323 -0 1 -0
0.218776777386665344 0 0.151613622903823853 -0 1 -0
0.198048532009124756 0 0.0682766512036323547 -0 1 -0
-0.0127659980207681656 0 0.0994650870561599731 -0 1 -0
0.647585749626159668 0 0.876943647861480713 -0 1 -0
0.147679045796394348 0 0.593731403350830078 -0 1 -0
-0.508408486843109131 0 0.91308826208114624 -0 1 -0
0.0771485641598701477 0 0.951365292072296143 -0 1 -0
-0.103150740265846252 0 0.552666127681732178 -0 1 -0
0.608310878276824951 0 -0.109043397009372711 -0 1 -0
0.312315791845321655 0 -0.00165541283786296844 -0 1 -0
0.987157583236694336 0 -0.50254666805267334 -0 1 -0
0.254763871431350708 0 0.650540173053741455 -0 1 -0
0.5624886155128479 0 0.449983060359954834 -0 1 -0
0.464877277612686157 0 -0.43104630708694458 -0 1 -0
0.159484997391700745 0 0.402008175849914551 -0 1 -0
-0.358956426382064819 0 0.790917575359344482 -0 1 -0
-0.259660601615905762 0 0.435542076826095581 -0 1 -0
0.327340602874755859 0 0.833470165729522705 -0 1 -0
-0.0542250759899616241 0 0.554201662540435791 -0 1 -0
0.203016951680183411 0 0.357779830694198608 -0 1 -0
0.685129821300506592 0 0.472839087247848511 -0 1 -0
0.098154313862323761 0 0.189369350671768188 -0 1 -0
0.400465697050094604 0 0.800841331481933594 -0 1 -0
0.118035838007926941 0 0.448631107807159424 -0 1 -0
0.851478874683380127 0 0.810952842235565186 -0 1 -0
0.658075034618377686 0 0.325524806976318359 -0 1 -0
0.783947765827178955 0 0.16298183798789978 -0 1 -0
0.461592793464660645 0 -0.120811469852924347 -0 1 -0
0.889463961124420166 0 0.220985546708106995 -0 1 -0
-0.0912719815969467163 0 0.257229357957839966 -0 1 -0
0.900291919708251953 0 -0.586992859840393066 -0 1 -0
0.575051009654998779 4 -0.80974191427230835 -0 -1 -0
0.94888615608215332 4 0.897186398506164551 -0 -1 -0
0.0127038601785898209 4 -0.829354047775268555 -0 -1 -0
0.670319259166717529 4 -0.179741650819778442 -0 -1 -0
0.206462070345878601 4 -0.919834613800048828 -0 -1 -0
0.797993838787078857 4 -0.244334310293197632 -0 -1 -0
0.314884006977081299 4 -0.330753684043884277 -0 -1 -0
0.172186627984046936 4 -0.696573019027709961 -0 -1 -0
0.28319510817527771 4 -0.286763608455657959 -0 -1 -0
0.684009253978729248 4 -0.861358404159545898 -0 -1 -0
-0.181940436363220215 4 -0.655377388000488281 -0 -1 -0
-0.519361138343811035 4 -0.790843665599822998 -0 -1 -0
-0.830817282199859619 4 -0.86572265625 -0 -1 -0
0.986453533172607422 4 -0.471607476472854614 -0 -1 -0
-0.163543209433555603 4 -0.544637739658355713 -0 -1 -0
-0.631037652492523193 4 -0.745728552341461182 -0 -1 -0
-0.625494956970214844 4 -0.91330564022064209 -0 -1 -0
0.562940478324890137 4 -0.488503545522689819 -0 -1 -0
0.237297549843788147 4 -0.505156874656677246 -0 -1 -0
-0.179800346493721008 4 -0.342600643634796143 -0 -1 -0
-0.516338169574737549 4 -0.994390189647674561 -0 -1 -0
-0.365138202905654907 4 -0.735024213790893555 -0 -1 -0
0.707050144672393799 4 -0.422918230295181274 -0 -1 -0
0.727741479873657227 4 -0.893211483955383301 -0 -1 -0
0.17381596565246582 4 -0.0555465519428253174 -0 -1 -0
-0.933122932910919189 4 -0.946686506271362305 -0 -1 -0
0.758858323097229004 4 0.414927810430526733 -0 -1 -0
0.349233180284500122 4 -0.642991721630096436 -0 -1 -0
0.948469221591949463 4 0.605271637439727783 -0 -1 -0
0.29491850733757019 4 0.199512109160423279 -0 -1 -0
0.982943356037139893 4 0.55887913703918457 -0 -1 -0
0.605731427669525146 4 -0.473902881145477295 -0 -1 -0
0.331040054559707642 4 -0.710623502731323242 -0 -1 -0
0.411343634128570557 4 -0.380932807922363281 -0 -1 -0
-0.0667210519313812256 4 -0.960527956485748291 -0 -1 -0
0.844910919666290283 4 -0.527010321617126465 -0 -1 -0
0.298678278923034668 4 -0.645556271076202393 -0 -1 -0
0.0347982756793498993 4 -0.552103161811828613 -0 -1 -0
0.497969448566436768 4 -0.202935934066772461 -0 -1 -0
0.181521013379096985 4 -0.217080846428871155 -0 -1 -0
0.652956843376159668 4 -0.526797771453857422 -0 -1 -0
0.386118382215499878 4 -0.804563641548156738 -0 -1 -0
0.449043780565261841 4 -0.619720757007598877 -0 -1 -0
0.777413070201873779 4 0.649086475372314453 -0 -1 -0
0.748736441135406494 4 -0.789639115333557129 -0 -1 -0
0.788606882095336914 4 0.455087512731552124 -0 -1 -0
0.43809846043586731 4 -0.440469741821289062 -0 -1 -0
0.283922642469406128 4 0.140301495790481567 -0 -1 -0
0.5385703444480896 4 -0.687101900577545166 -0 -1 -0
0.947063863277435303 4 0.807250380516052246 -0 -1 -0
0.526636064052581787 4 0.310878872871398926 -0 -1 -0
-0.56455761194229126 4 -0.659475743770599365 -0 -1 -0
0.534569084644317627 4 0.506056666374206543 -0 -1 -0
0.824310302734375 4 -0.445175409317016602 -0 -1 -0
-0.507105469703674316 4 -0.928708255290985107 -0 -1 -0
0.938626945018768311 4 -0.151121377944946289 -0 -1 -0
0.873601257801055908 4 0.170985966920852661 -0 -1 -0
-0.474005013704299927 4 -0.483634620904922485 -0 -1 -0
0.473360836505889893 4 -0.15156237781047821 -0 -1 -0
0.882827281951904297 4 -0.813046514987945557 -0 -1 -0
0.592242896556854248 4 -0.914731323719024658 -0 -1 -0
0.835320413112640381 4 -0.659673929214477539 -0 -1 -0
0.625148952007293701 4 -0.150837153196334839 -0 -1 -0
0.182128593325614929 4 0.0939426198601722717 -0 -1 -0
0.276487171649932861 4 0.272145181894302368 -0 -1 -0
0.605345845222473145 4 -0.84419780969619751 -0 -1 -0
0.346289992332458496 4 -0.918104112148284912 -0 -1 -0
-0.101153098046779633 4 -0.268476516008377075 -0 -1 -0
0.00117477076128125191 4 -0.193884551525115967 -0 -1 -0
0.368528157472610474 4 0.177936628460884094 -0 -1 -0
-0.233238726854324341 4 -0.302926689386367798 -0 -1 -0
0.212221667170524597 4 0.180725619196891785 -0 -1 -0
-0.493562310934066772 4 -0.657967627048492432 -0 -1 -0
0.259179413318634033 4 0.0189246721565723419 -0 -1 -0
-0.00197431747801601887 4 -0.518277406692504883 -0 -1 -0
0.763983607292175293 4 -0.472248584032058716 -0 -1 -0
-0.474007964134216309 4 -0.810647189617156982 -0 -1 -0
-0.551527976989746094 4 -0.704223394393920898 -0 -1 -0
0.196461468935012817 4 -0.15656694769859314 -0 -1 -0
-0.00903779640793800354 4 -0.934825241565704346 -0 -1 -0
0.621439516544342041 4 -0.36662822961807251 -0 -1 -0
0.217529773712158203 4 -0.592827916145324707 -0 -1 -0
0.0793607980012893677 4 -0.309188634157180786 -0 -1 -0
0.425569683313369751 4 0.18305128812789917 -0 -1 -0
-0.794965803623199463 4 -0.900165319442749023 -0 -1 -0
0.388580054044723511 4 -0.1910228431224823 -0 -1 -0
0.784636259078979492 4 -0.848200738430023193 -0 -1 -0
0.661662101745605469 4 -0.122806936502456665 -0 -1 -0
-0.112415164709091187 4 -0.388313323259353638 -0 -1 -0
0.357439815998077393 4 -0.0204367004334926605 -0 -1 -0
-0.866240859031677246 4 -0.989349365234375 -0 -1 -0
0.237576588988304138 4 -0.885800361633300781 -0 -1 -0
0.955171942710876465 4 -0.908668637275695801 -0 -1 -0
0.855392932891845703 4 -0.0248603131622076035 -0 -1 -0
0.353334248065948486 4 -0.0959948301315307617 -0 -1 -0
0.849059879779815674 4 0.323072254657745361 -0 -1 -0
0.863004326820373535 4 -0.582173347473144531 -0 -1 -0
0.673091232776641846 4 0.125072717666625977 -0 -1 -0
-0.117251031100749969 4 -0.520833134651184082 -0 -1 -0
-0.174123674631118774 4 -0.881091535091400146 -0 -1 -0
0.443314254283905029 4 0.32327994704246521 -0 -1 -0
0.320092171430587769 4 0.307938873767852783 -0 -1 -0
0.992873430252075195 4 0.716196835041046143 -0 -1 -0
0.617251932621002197 4 0.401024907827377319 -0 -1 -0
0.0998830869793891907 4 -0.96404343843460083 -0 -1 -0
0.748874902725219727 4 -0.950099825859069824 -0 -1 -0
0.730993509292602539 4 0.636611700057983398 -0 -1 -0
0.402757465839385986 4 0.124319612979888916 -0 -1 -0
-0.337422221899032593 4 -0.387318581342697144 -0 -1 -0
-0.686959743499755859 4 -0.692107796669006348 -0 -1 -0
0.121707729995250702 4 -0.0594999082386493683 -0 -1 -0
0.941653907299041748 4 0.723569095134735107 -0 -1 -0
0.502114832401275635 4 -0.973815321922302246 -0 -1 -0
0.768056869506835938 4 -0.33726799488067627 -0 -1 -0
0.662479043006896973 4 -0.343772143125534058 -0 -1 -0
0.935530245304107666 4 0.468334615230560303 -0 -1 -0
0.0881563052535057068 4 -0.640747427940368652 -0 -1 -0
0.740783274173736572 4 0.68690413236618042 -0 -1 -0
0.476794600486755371 4 -0.386033535003662109 -0 -1 -0
0.511696875095367432 4 -0.928351223468780518 -0 -1 -0
-0.221857443451881409 4 -0.857935190200805664 -0 -1 -0
-0.664666354656219482 4 -0.960087835788726807 -0 -1 -0
0.726745247840881348 4 -0.843544721603393555 -0 -1 -0
