ply
format ascii 1.0
element vertex 867
property float x
property float y
property float z
property float nx
property float ny
property float nz
end_header
-0.251644343137741089 4 -0.383087217807769775 -0 -1 -0
0.752306997776031494 4 -0.704873085021972656 -0 -1 -0
0.833240985870361328 4 0.82837224006652832 -0 -1 -0
-0.0293220840394496918 4 -0.922762095928192139 -0 -1 -0
0.813901126384735107 4 -0.888014376163482666 -0 -1 -0
-0.536780595779418945 4 -0.612171769142150879 -0 -1 -0
-0.00968459248542785645 4 -0.320201873779296875 -0 -1 -0
0.134225040674209595 4 -0.874719321727752686 -0 -1 -0
0.966024160385131836 4 0.175076723098754883 -0 -1 -0
0.603193223476409912 4 0.404240429401397705 -0 -1 -0
0.00491082342341542244 4 -0.377729952335357666 -0 -1 -0
-0.458435356616973877 4 -0.600937604904174805 -0 -1 -0
-0.205708712339401245 4 -0.423220992088317871 -0 -1 -0
-0.964083254337310791 4 -0.974201440811157227 -0 -1 -0
0.849416911602020264 4 -0.500416338443756104 -0 -1 -0
0.563928186893463135 4 -0.739979028701782227 -0 -1 -0
-0.0606663525104522705 4 -0.366255760192871094 -0 -1 -0
0.630089819431304932 4 -0.178421482443809509 -0 -1 -0
0.876426398754119873 4 -0.572982966899871826 -0 -1 -0
0.934146463871002197 4 0.0366388075053691864 -0 -1 -0
0.287699282169342041 4 -0.418758481740951538 -0 -1 -0
0.644117116928100586 4 0.217555448412895203 -0 -1 -0
0.681956052780151367 4 0.117527246475219727 -0 -1 -0
0.980358362197875977 4 0.78226780891418457 -0 -1 -0
0.0643383413553237915 4 -0.655120193958282471 -0 -1 -0
-0.473751187324523926 4 -0.913374602794647217 -0 -1 -0
0.250566750764846802 4 -0.779195845127105713 -0 -1 -0
0.134982571005821228 4 -0.352702498435974121 -0 -1 -0
-0.152932450175285339 4 -0.863361477851867676 -0 -1 -0
0.861500561237335205 4 -0.336909502744674683 -0 -1 -0
0.793086707592010498 4 0.349901169538497925 -0 -1 -0
0.708645522594451904 4 0.491879314184188843 -0 -1 -0
0.146818041801452637 4 -0.53667217493057251 -0 -1 -0
0.185475125908851624 4 -0.887699484825134277 -0 -1 -0
0.519205152988433838 4 0.154701471328735352 -0 -1 -0
0.660599827766418457 4 0.27527204155921936 -0 -1 -0
-0.0634706094861030579 4 -0.19398091733455658 -0 -1 -0
0.232183635234832764 4 -0.623770773410797119 -0 -1 -0
0.582810103893280029 4 -0.787223577499389648 -0 -1 -0
0.89717334508895874 4 0.236168384552001953 -0 -1 -0
0.39272773265838623 4 -0.090055905282497406 -0 -1 -0
0.391852289438247681 4 0.186255618929862976 -0 -1 -0
-0.260325580835342407 4 -0.560830295085906982 -0 -1 -0
0.732135534286499023 4 0.127043694257736206 -0 -1 -0
0.937547922134399414 4 -0.836572647094726562 -0 -1 -0
-0.678267836570739746 4 -0.954648435115814209 -0 -1 -0
0.208449587225914001 4 -0.841746628284454346 -0 -1 -0
0.804265081882476807 4 -0.732973694801330566 -0 -1 -0
0.695804297924041748 4 -0.695435225963592529 -0 -1 -0
0.902365624904632568 4 -0.494035154581069946 -0 -1 -0
-0.205567523837089539 4 -0.980058014392852783 -0 -1 -0
0.946872353553771973 4 -0.693297266960144043 -0 -1 -0
-0.33371657133102417 4 -0.755453765392303467 -0 -1 -0
0.370666176080703735 4 -0.7841910719871521 -0 -1 -0
0.455049604177474976 4 -0.714391410350799561 -0 -1 -0
-0.711029946804046631 4 -0.859515786170959473 -0 -1 -0
0.76181328296661377 4 -0.835765600204467773 -0 -1 -0
-0.327253550291061401 4 -0.877121925354003906 -0 -1 -0
0.739927470684051514 4 0.594098806381225586 -0 -1 -0
0.942828118801116943 4 -0.901608645915985107 -0 -1 -0
0.656510531902313232 4 0.413672268390655518 -0 -1 -0
-0.847958385944366455 4 -0.972176253795623779 -0 -1 -0
0.918768525123596191 4 0.141795039176940918 -0 -1 -0
0.194997593760490417 4 -0.0135098332539200783 -0 -1 -0
-0.486805260181427002 4 -0.808290004730224609 -0 -1 -0
0.971308887004852295 4 -0.345513075590133667 -0 -1 -0
0.897252976894378662 4 -0.213770687580108643 -0 -1 -0
0.800881564617156982 4 -0.493649780750274658 -0 -1 -0
0.164119735360145569 4 -0.938843727111816406 -0 -1 -0
0.770156800746917725 4 -0.263799130916595459 -0 -1 -0
0.589731097221374512 4 -0.207125678658485413 -0 -1 -0
0.497168809175491333 4 0.0684071406722068787 -0 -1 -0
0.74129718542098999 4 -0.224421232938766479 -0 -1 -0
-0.785684704780578613 4 -0.956120312213897705 -0 -1 -0
0.587972342967987061 4 0.358426421880722046 -0 -1 -0
0.835097372531890869 4 -0.0327820256352424622 -0 -1 -0
-0.576082766056060791 4 -0.765246748924255371 -0 -1 -0
-0.140143215656280518 4 -0.261872023344039917 -0 -1 -0
0.857616543769836426 4 -0.947408735752105713 -0 -1 -0
0.506847977638244629 4 -0.952206552028656006 -0 -1 -0
0.985953390598297119 4 -0.856923818588256836 -0 -1 -0
0.142841935157775879 4 -0.30137750506401062 -0 -1 -0
0.769945919513702393 4 0.495742172002792358 -0 -1 -0
0.0874597430229187012 4 -0.0640518590807914734 -0 -1 -0
0.279907763004302979 4 -0.1844482421875 -0 -1 -0
-0.421129971742630005 4 -0.881482481956481934 -0 -1 -0
0.645504236221313477 4 0.497578978538513184 -0 -1 -0
0.582991182804107666 4 -0.636599302291870117 -0 -1 -0
0.600640177726745605 4 0.308902710676193237 -0 -1 -0
-0.727436304092407227 4 -0.903837859630584717 -0 -1 -0
-0.050700996071100235 4 -0.571654140949249268 -0 -1 -0
0.999638795852661133 4 -0.299896478652954102 -0 -1 -0
-0.0243310891091823578 4 -0.127302736043930054 -0 -1 -0
0.448365300893783569 4 -0.502877295017242432 -0 -1 -0
0.204167187213897705 4 -0.398907601833343506 -0 -1 -0
-0.466808527708053589 4 -0.765929520130157471 -0 -1 -0
0.552474081516265869 4 -0.0122778806835412979 -0 -1 -0
0.94914543628692627 4 0.0870071351528167725 -0 -1 -0
-0.321724146604537964 4 -0.503135085105895996 -0 -1 -0
0.479931086301803589 4 -0.449223041534423828 -0 -1 -0
0.100791774690151215 4 -0.510084331035614014 -0 -1 -0
0.942894160747528076 4 -0.13412831723690033 -0 -1 -0
0.714591622352600098 4 -0.497955769300460815 -0 -1 -0
-0.277922779321670532 4 -0.337878912687301636 -0 -1 -0
0.493866056203842163 4 -0.39381745457649231 -0 -1 -0
0.167622044682502747 4 -0.14860236644744873 -0 -1 -0
0.300141483545303345 4 -0.755152225494384766 -0 -1 -0
-0.0153092863038182259 4 -0.20287090539932251 -0 -1 -0
0.70337831974029541 4 -0.417461276054382324 -0 -1 -0
0.0851346924901008606 4 -0.99849236011505127 -0 -1 -0
0.861775577068328857 4 0.36896669864654541 -0 -1 -0
0.61851036548614502 4 -0.543874680995941162 -0 -1 -0
-0.145105108618736267 4 -0.644751310348510742 -0 -1 -0
-0.0913647264242172241 4 -0.459650367498397827 -0 -1 -0
0.965080082416534424 4 -0.180111721158027649 -0 -1 -0
0.620775222778320312 4 0.610164403915405273 -0 -1 -0
-0.820653557777404785 4 -0.924383223056793213 -0 -1 -0
0.178139254450798035 4 -0.619083225727081299 -0 -1 -0
0.13663250207901001 4 -0.00386476935818791389 -0 -1 -0
-0.44008105993270874 4 -0.968782007694244385 -0 -1 -0
-0.100421048700809479 4 -0.568803727626800537 -0 -1 -0
-0.0847699344158172607 4 -0.877757251262664795 -0 -1 -0
0.262884467840194702 4 0.0505758672952651978 -0 -1 -0
0.0756275057792663574 4 -0.125369489192962646 -0 -1 -0
0.792687952518463135 4 0.539528787136077881 -0 -1 -0
0.88015824556350708 4 0.714319169521331787 -0 -1 -0
0.319737702608108521 4 -0.850943386554718018 -0 -1 -0
0.198668897151947021 4 -0.463062286376953125 -0 -1 -0
0.494213074445724487 4 -0.132122263312339783 -0 -1 -0
0.0940817147493362427 4 -0.848956048488616943 -0 -1 -0
0.825362801551818848 4 -0.792561113834381104 -0 -1 -0
-0.673464298248291016 4 -0.708081066608428955 -0 -1 -0
0.49088442325592041 4 -0.871508240699768066 -0 -1 -0
0.382600307464599609 4 -0.465074867010116577 -0 -1 -0
0.971024155616760254 4 -0.754842221736907959 -0 -1 -0
-0.163364559412002563 4 -0.91458815336227417 -0 -1 -0
-0.404487878084182739 4 -0.666506826877593994 -0 -1 -0
0.75076746940612793 4 -0.0999926179647445679 -0 -1 -0
0.61025547981262207 4 -0.836566567420959473 -0 -1 -0
0.213142752647399902 4 -0.742388427257537842 -0 -1 -0
-0.487847656011581421 4 -0.965736508369445801 -0 -1 -0
0.486096441745758057 4 -0.994894444942474365 -0 -1 -0
0.0898185968399047852 4 -0.369761168956756592 -0 -1 -0
0.848754286766052246 4 0.547128558158874512 -0 -1 -0
0.681130826473236084 4 0.364739120006561279 -0 -1 -0
0.783619165420532227 4 -0.14306679368019104 -0 -1 -0
-0.324825078248977661 4 -0.223046645522117615 -0 -1 -0
-0.821044266223907471 4 -0.107834205031394958 -0 -1 -0
-0.078986242413520813 4 0.0596091300249099731 -0 -1 -0
-0.338534057140350342 4 0.617677807807922363 -0 -1 -0
-0.963268578052520752 4 0.85094684362411499 -0 -1 -0
-0.523169815540313721 4 -0.0251765940338373184 -0 -1 -0
-0.917563855648040771 4 -0.551583409309387207 -0 -1 -0
-0.675494730472564697 4 -0.582794845104217529 -0 -1 -0
0.715370774269104004 4 0.796181261539459229 -0 -1 -0
0.431194216012954712 4 0.496318191289901733 -0 -1 -0
0.562579989433288574 4 0.702129960060119629 -0 -1 -0
-0.425842136144638062 4 0.69881671667098999 -0 -1 -0
-0.805732369422912598 4 0.131856337189674377 -0 -1 -0
-0.425354689359664917 4 -0.310455352067947388 -0 -1 -0
-0.787975728511810303 4 -0.377601772546768188 -0 -1 -0
-0.138457298278808594 4 0.984227359294891357 -0 -1 -0
-0.99365234375 4 -0.552434325218200684 -0 -1 -0
-0.0518075078725814819 4 0.281796783208847046 -0 -1 -0
-0.435209959745407104 4 -0.168472349643707275 -0 -1 -0
-0.298059672117233276 4 -0.132361844182014465 -0 -1 -0
-0.335366517305374146 4 -0.0291295498609542847 -0 -1 -0
0.118172228336334229 4 0.247963249683380127 -0 -1 -0
-0.189175412058830261 4 0.267721891403198242 -0 -1 -0
0.0998071432113647461 4 0.820758283138275146 -0 -1 -0
-0.0638123676180839539 4 0.54220503568649292 -0 -1 -0
0.114233054220676422 4 0.870077967643737793 -0 -1 -0
-0.719042122364044189 4 -0.369458764791488647 -0 -1 -0
0.512786746025085449 4 0.780513465404510498 -0 -1 -0
-0.0833217650651931763 4 0.124164886772632599 -0 -1 -0
-0.579572319984436035 4 -0.470414668321609497 -0 -1 -0
-0.538386404514312744 4 -0.0695619881153106689 -0 -1 -0
-0.244012340903282166 4 0.949704945087432861 -0 -1 -0
-0.454579263925552368 4 0.446261107921600342 -0 -1 -0
-0.939684748649597168 4 -0.00631081312894821167 -0 -1 -0
0.468016058206558228 4 0.743745923042297363 -0 -1 -0
-0.944770872592926025 4 -0.156572967767715454 -0 -1 -0
-0.203224718570709229 4 0.213938206434249878 -0 -1 -0
-0.521994173526763916 4 -0.232349932193756104 -0 -1 -0
0.270635873079299927 4 0.385910123586654663 -0 -1 -0
-0.797614991664886475 4 0.955027103424072266 -0 -1 -0
-0.21059805154800415 4 0.350268244743347168 -0 -1 -0
-0.948686301708221436 4 -0.778328120708465576 -0 -1 -0
0.0836928486824035645 4 0.994664549827575684 -0 -1 -0
-0.276264965534210205 4 0.518322408199310303 -0 -1 -0
-0.520501613616943359 4 -0.315947502851486206 -0 -1 -0
0.253250151872634888 4 0.518692612648010254 -0 -1 -0
-0.326791554689407349 4 0.858735144138336182 -0 -1 -0
-0.876602888107299805 4 -0.019459851086139679 -0 -1 -0
0.302409142255783081 4 0.486431896686553955 -0 -1 -0
-0.220266148447990417 4 0.576765120029449463 -0 -1 -0
0.817377984523773193 4 0.890253663063049316 -0 -1 -0
-0.299443870782852173 4 0.815062642097473145 -0 -1 -0
0.0200505424290895462 4 0.104600630700588226 -0 -1 -0
-0.164112553000450134 4 0.45373380184173584 -0 -1 -0
-0.708103060722351074 4 0.660099267959594727 -0 -1 -0
-0.994815647602081299 4 0.218056917190551758 -0 -1 -0
-0.0898502767086029053 4 0.189806446433067322 -0 -1 -0
-0.206722021102905273 4 0.728366851806640625 -0 -1 -0
-0.621170341968536377 4 0.986826419830322266 -0 -1 -0
-0.952283203601837158 4 0.535193264484405518 -0 -1 -0
-0.387073785066604614 4 -0.0477107912302017212 -0 -1 -0
-0.655348002910614014 4 0.671297729015350342 -0 -1 -0
-0.769182741641998291 4 -0.492163330316543579 -0 -1 -0
-0.483147531747817993 4 -0.346266210079193115 -0 -1 -0
-0.290335476398468018 4 0.444560378789901733 -0 -1 -0
-0.503152132034301758 4 0.453625619411468506 -0 -1 -0
-0.652526974678039551 4 -0.0639429837465286255 -0 -1 -0
-0.326035767793655396 4 0.246759787201881409 -0 -1 -0
-0.334650784730911255 4 0.189725145697593689 -0 -1 -0
-0.944579005241394043 4 -0.717796862125396729 -0 -1 -0
-0.246893897652626038 4 0.284787118434906006 -0 -1 -0
-0.111787453293800354 4 0.715189993381500244 -0 -1 -0
-0.704210937023162842 4 -0.0969311892986297607 -0 -1 -0
-0.362914562225341797 4 0.039651922881603241 -0 -1 -0
0.746196448802947998 4 0.911715507507324219 -0 -1 -0
-0.792494595050811768 4 0.486375868320465088 -0 -1 -0
0.34596213698387146 4 0.5697479248046875 -0 -1 -0
-0.909813106060028076 4 0.867728948593139648 -0 -1 -0
-0.807516813278198242 4 0.615435540676116943 -0 -1 -0
0.248355448246002197 4 0.700349092483520508 -0 -1 -0
-0.237289473414421082 4 0.477365612983703613 -0 -1 -0
-0.294874399900436401 4 0.564359664916992188 -0 -1 -0
-0.68877178430557251 4 0.483677983283996582 -0 -1 -0
-0.519470393657684326 4 -0.398169279098510742 -0 -1 -0
0.914028525352478027 4 0.991487622261047363 -0 -1 -0
0.180838987231254578 4 0.616505742073059082 -0 -1 -0
0.601404428482055664 4 0.824042320251464844 -0 -1 -0
-0.718670129776000977 4 0.592274367809295654 -0 -1 -0
-0.0419550985097885132 4 0.166812151670455933 -0 -1 -0
0.477233350276947021 4 0.901883721351623535 -0 -1 -0
-0.89353644847869873 4 -0.433344930410385132 -0 -1 -0
-0.911332011222839355 4 0.608648896217346191 -0 -1 -0
-0.471276193857192993 4 -0.243589624762535095 -0 -1 -0
-0.074238903820514679 4 0.885186553001403809 -0 -1 -0
0.779417932033538818 4 0.817579746246337891 -0 -1 -0
-0.793873131275177002 4 -0.26392790675163269 -0 -1 -0
-0.870549857616424561 4 0.219107121229171753 -0 -1 -0
-0.854436218738555908 4 -0.622804939746856689 -0 -1 -0
-0.664111554622650146 4 0.178868472576141357 -0 -1 -0
-0.868811845779418945 4 -0.575806558132171631 -0 -1 -0
-0.916238784790039062 4 -0.658373653888702393 -0 -1 -0
-0.346955806016921997 4 0.429508864879608154 -0 -1 -0
-0.0670188367366790771 4 0.685552716255187988 -0 -1 -0
0.396308302879333496 4 0.896409273147583008 -0 -1 -0
-0.918887853622436523 4 0.293481945991516113 -0 -1 -0
-0.752696335315704346 4 -0.67783653736114502 -0 -1 -0
-0.323888629674911499 4 0.0912880226969718933 -0 -1 -0
-0.86435312032699585 4 0.332824736833572388 -0 -1 -0
-0.720263481140136719 4 0.745099425315856934 -0 -1 -0
-0.92346423864364624 4 0.684700608253479004 -0 -1 -0
-0.790419518947601318 4 0.0238496586680412292 -0 -1 -0
-0.394626498222351074 4 0.431238323450088501 -0 -1 -0
0.0578729920089244843 4 0.374694138765335083 -0 -1 -0
0.131813734769821167 4 0.180325716733932495 -0 -1 -0
-0.471261978149414062 4 -0.455545783042907715 -0 -1 -0
-0.727956652641296387 4 0.293735027313232422 -0 -1 -0
-0.827983736991882324 4 -0.403199225664138794 -0 -1 -0
-0.468132048845291138 4 0.394309550523757935 -0 -1 -0
-0.989829480648040771 4 0.170082554221153259 -0 -1 -0
-0.98217850923538208 4 0.724370121955871582 -0 -1 -0
0.346263021230697632 4 0.736018180847167969 -0 -1 -0
0.0819948017597198486 4 0.740045547485351562 -0 -1 -0
-0.943539023399353027 4 -0.510246694087982178 -0 -1 -0
-0.470256716012954712 4 0.865151405334472656 -0 -1 -0
-0.931112706661224365 4 -0.399270683526992798 -0 -1 -0
-0.551964342594146729 4 -0.157529264688491821 -0 -1 -0
-0.994192898273468018 4 -0.1042633056640625 -0 -1 -0
-0.413575410842895508 4 0.799644649028778076 -0 -1 -0
-0.729712545871734619 4 -0.314100593328475952 -0 -1 -0
-0.519777774810791016 4 0.535082519054412842 -0 -1 -0
-0.305646955966949463 4 0.0410583280026912689 -0 -1 -0
-0.803909003734588623 4 -0.748277664184570312 -0 -1 -0
-0.319311529397964478 4 0.485394120216369629 -0 -1 -0
-0.60856550931930542 4 -0.268839448690414429 -0 -1 -0
-0.830663681030273438 4 0.448122948408126831 -0 -1 -0
-0.857279539108276367 4 0.400193184614181519 -0 -1 -0
0.113201715052127838 4 0.681812942028045654 -0 -1 -0
-0.470010310411453247 4 0.631012260913848877 -0 -1 -0
-0.738225281238555908 4 -0.25897216796875 -0 -1 -0
0.235752388834953308 4 0.803292989730834961 -0 -1 -0
-0.362400799989700317 4 0.960313200950622559 -0 -1 -0
0.368600606918334961 4 0.672731280326843262 -0 -1 -0
-0.038625720888376236 4 0.848476529121398926 -0 -1 -0
-0.500780999660491943 4 0.19281160831451416 -0 -1 -0
0.01360334362834692 4 0.352253854274749756 -0 -1 -0
-0.779731035232543945 4 0.752272546291351318 -0 -1 -0
-0.812929749488830566 4 -0.67241370677947998 -0 -1 -0
-0.957292735576629639 4 -0.23076571524143219 -0 -1 -0
0.171086773276329041 4 0.679398536682128906 -0 -1 -0
0.547383964061737061 4 0.890300452709197998 -0 -1 -0
-0.123981788754463196 4 0.840493977069854736 -0 -1 -0
0.308925330638885498 4 0.686208009719848633 -0 -1 -0
-0.402288526296615601 4 0.482329875230789185 -0 -1 -0
-0.778361320495605469 4 0.439431160688400269 -0 -1 -0
-0.00577062880620360374 4 0.410426616668701172 -0 -1 -0
-0.899853944778442383 4 -0.8432503342628479 -0 -1 -0
-0.0055127427913248539 4 0.565348803997039795 -0 -1 -0
0.300702720880508423 4 0.969154238700866699 -0 -1 -0
0.774711310863494873 4 0.872591555118560791 -0 -1 -0
0.212118551135063171 4 0.940053701400756836 -0 -1 -0
-0.268093079328536987 4 0.367317467927932739 -0 -1 -0
-0.3084067702293396 4 0.732808470726013184 -0 -1 -0
-0.695093989372253418 4 0.833016514778137207 -0 -1 -0
-0.427439868450164795 4 0.0827019065618515015 -0 -1 -0
-0.0921208858489990234 4 0.987278640270233154 -0 -1 -0
-0.93738633394241333 4 0.745418906211853027 -0 -1 -0
0.29752194881439209 4 0.808364152908325195 -0 -1 -0
-0.151156365871429443 4 0.292696058750152588 -0 -1 -0
-0.803309500217437744 4 -0.17103150486946106 -0 -1 -0
-0.350417494773864746 4 0.693341553211212158 -0 -1 -0
-0.895439505577087402 4 0.779707610607147217 -0 -1 -0
-0.737936198711395264 4 0.497589290142059326 -0 -1 -0
-0.753635823726654053 4 -0.75305551290512085 -0 -1 -0
0.00592267187312245369 4 0.178727880120277405 -0 -1 -0
-0.787101507186889648 4 -0.53628075122833252 -0 -1 -0
-0.22576315701007843 4 0.148879081010818481 -0 -1 -0
-0.380774110555648804 4 -0.115952640771865845 -0 -1 -0
-0.650952756404876709 4 -0.228839680552482605 -0 -1 -0
-0.981988430023193359 4 0.578497231006622314 -0 -1 -0
-0.662769019603729248 4 0.429535090923309326 -0 -1 -0
-0.188139244914054871 4 0.539719700813293457 -0 -1 -0
-0.452496349811553955 4 0.0111071961000561714 -0 -1 -0
0.480581521987915039 4 0.683952927589416504 -0 -1 -0
-0.434849321842193604 4 0.13909679651260376 -0 -1 -0
-0.785583198070526123 4 0.279077708721160889 -0 -1 -0
-0.615117728710174561 4 0.852220475673675537 -0 -1 -0
-0.973912477493286133 4 0.40853416919708252 -0 -1 -0
-0.430380314588546753 4 0.255810588598251343 -0 -1 -0
0.861455380916595459 4 0.918843984603881836 -0 -1 -0
-0.717104613780975342 4 0.100464202463626862 -0 -1 -0
-0.933521091938018799 4 0.939323067665100098 -0 -1 -0
-0.378900647163391113 4 -0.37355765700340271 -0 -1 -0
0.163480892777442932 4 0.215925037860870361 -0 -1 -0
0.597847223281860352 4 0.908462762832641602 -0 -1 -0
0.545232653617858887 4 0.551352858543395996 -0 -1 -0
0.0504861846566200256 4 0.805590629577636719 -0 -1 -0
0.263328433036804199 4 0.589160323143005371 -0 -1 -0
-0.876304090023040771 4 0.122585922479629517 -0 -1 -0
0.021219717338681221 4 0.852745473384857178 -0 -1 -0
-0.392676830291748047 4 -0.249135419726371765 -0 -1 -0
-0.15792711079120636 4 0.702867686748504639 -0 -1 -0
-0.381135135889053345 4 0.130321219563484192 -0 -1 -0
-0.614914417266845703 4 0.438173055648803711 -0 -1 -0
-0.205272078514099121 4 0.806959390640258789 -0 -1 -0
-0.327956795692443848 4 -0.0781697407364845276 -0 -1 -0
-0.471426665782928467 4 0.100372277200222015 -0 -1 -0
0.0410459153354167938 4 0.148789450526237488 -0 -1 -0
-0.596253633499145508 4 0.0134493429213762283 -0 -1 -0
-0.277242958545684814 4 0.223074629902839661 -0 -1 -0
-0.740815639495849609 4 0.797707855701446533 -0 -1 -0
-0.678649604320526123 4 0.6176186203956604 -0 -1 -0
-0.539164423942565918 4 0.268244534730911255 -0 -1 -0
-0.871502280235290527 4 0.655046761035919189 -0 -1 -0
-0.348283350467681885 4 -0.331557661294937134 -0 -1 -0
-0.126341477036476135 4 0.5440521240234375 -0 -1 -0
-0.475390970706939697 4 0.571424186229705811 -0 -1 -0
-0.500298500061035156 4 0.917922854423522949 -0 -1 -0
-0.959880709648132324 4 0.354412734508514404 -0 -1 -0
-0.00720242736861109734 4 0.891568243503570557 -0 -1 -0
0.0951390713453292847 4 0.942473471164703369 -0 -1 -0
-0.897213876247406006 4 -0.755504369735717773 -0 -1 -0
-0.600534558296203613 4 -0.560191214084625244 -0 -1 -0
-0.0437036901712417603 4 0.615506887435913086 -0 -1 -0
-0.54088824987411499 4 0.0259978435933589935 -0 -1 -0
0.440467655658721924 4 0.784198641777038574 -0 -1 -0
0.180591627955436707 4 0.825748324394226074 -0 -1 -0
-0.788811147212982178 4 0.224198848009109497 -0 -1 -0
-0.906414806842803955 4 -0.247244313359260559 -0 -1 -0
-0.721999228000640869 4 -0.427989751100540161 -0 -1 -0
0.223778069019317627 4 0.865410864353179932 -0 -1 -0
-0.665961325168609619 4 -0.177622273564338684 -0 -1 -0
0.130713522434234619 4 0.604808449745178223 -0 -1 -0
-0.151680320501327515 4 0.381463855504989624 -0 -1 -0
-0.276246190071105957 4 0.131431952118873596 -0 -1 -0
-0.665110528469085693 4 0.283778637647628784 -0 -1 -0
0.402588218450546265 4 0.97881925106048584 -0 -1 -0
-0.954391896724700928 4 0.801765918731689453 -0 -1 -0
-0.457299381494522095 4 0.527459204196929932 -0 -1 -0
-0.756473660469055176 4 0.858472585678100586 -0 -1 -0
-0.878728806972503662 4 0.531845510005950928 -0 -1 -0
0.216502100229263306 4 0.472042769193649292 -0 -1 -0
-0.602681517601013184 4 0.504984200000762939 -0 -1 -0
-0.851229488849639893 4 0.989132404327392578 -0 -1 -0
-0.632905364036560059 4 0.135158747434616089 -0 -1 -0
0.378374427556991577 4 0.523485660552978516 -0 -1 -0
0.0875211805105209351 4 0.317307770252227783 -0 -1 -0
0.21374259889125824 4 0.276013225317001343 -0 -1 -0
-0.919684469699859619 4 -0.075043603777885437 -0 -1 -0
-0.24047534167766571 4 0.0645123422145843506 -0 -1 -0
0.398886173963546753 4 0.761879682540893555 -0 -1 -0
-0.915868043899536133 4 0.246451050043106079 -0 -1 -0
0.289949178695678711 4 0.342625617980957031 -0 -1 -0
-0.863945484161376953 4 -0.189690619707107544 -0 -1 -0
-0.873721420764923096 4 -0.10586702823638916 -0 -1 -0
-0.743929624557495117 4 0.375264376401901245 -0 -1 -0
-0.813256978988647461 4 0.17953956127166748 -0 -1 -0
0.359895229339599609 4 0.480317801237106323 -0 -1 -0
-0.78371506929397583 4 -0.0508131757378578186 -0 -1 -0
-0.0366895310580730438 4 0.225509986281394958 -0 -1 -0
0.398922562599182129 4 0.714924335479736328 -0 -1 -0
-0.522402942180633545 4 0.60198509693145752 -0 -1 -0
-0.481458097696304321 4 0.725018918514251709 -0 -1 -0
-0.191333800554275513 4 0.408823013305664062 -0 -1 -0
-0.0293097961694002151 4 0.0709019005298614502 -0 -1 -0
0.217388689517974854 4 0.664148688316345215 -0 -1 -0
-0.700785815715789795 4 0.533488988876342773 -0 -1 -0
-0.753231167793273926 4 0.169008195400238037 -0 -1 -0
0.431502640247344971 4 0.652101337909698486 -0 -1 -0
-0.697430849075317383 4 -0.657512128353118896 -0 -1 -0
-0.0459435917437076569 4 0.382457911968231201 -0 -1 -0
-0.574483633041381836 4 0.568529427051544189 -0 -1 -0
-0.390744984149932861 4 0.298437684774398804 -0 -1 -0
-0.534550786018371582 4 0.956298708915710449 -0 -1 -0
0.600564777851104736 4 0.773652434349060059 -0 -1 -0
-0.379273325204849243 4 0.743404507637023926 -0 -1 -0
0.463000178337097168 4 0.533181548118591309 -0 -1 -0
-0.925832092761993408 4 0.0525465905666351318 -0 -1 -0
-0.511719465255737305 4 0.0686326175928115845 -0 -1 -0
0.647311091423034668 4 0.728568851947784424 -0 -1 -0
-0.630798637866973877 4 0.582624197006225586 -0 -1 -0
-0.654303908348083496 4 0.721177279949188232 -0 -1 -0
-0.58104252815246582 4 -0.223504975438117981 -0 -1 -0
-0.902535200119018555 4 0.412515699863433838 -0 -1 -0
-0.312119275331497192 4 0.395133376121520996 -0 -1 -0
0.184738233685493469 4 0.317480802536010742 -0 -1 -0
0.0807562097907066345 4 0.205485448241233826 -0 -1 -0
-0.366822153329849243 4 0.560665309429168701 -0 -1 -0
0.00597944669425487518 4 0.99891430139541626 -0 -1 -0
-0.868430554866790771 4 -0.808988213539123535 -0 -1 -0
-0.600575804710388184 4 0.383116453886032104 -0 -1 -0
-0.600019574165344238 4 0.0959186702966690063 -0 -1 -0
0.0565824471414089203 4 0.0699899718165397644 -0 -1 -0
-0.548766136169433594 4 0.897647500038146973 -0 -1 -0
-0.900473177433013916 4 0.164156064391136169 -0 -1 -0
0.327506422996520996 4 0.411099404096603394 -0 -1 -0
0.451440781354904175 4 0.83757549524307251 -0 -1 -0
0.00498166307806968689 4 0.268348842859268188 -0 -1 -0
-0.0482018180191516876 4 -0.0459175035357475281 -0 -1 -0
-0.111239001154899597 4 -0.105756290256977081 -0 -1 -0
-0.793318808078765869 4 -0.327117472887039185 -0 -1 -0
-0.597555398941040039 4 0.681150138378143311 -0 -1 -0
0.160832867026329041 4 0.874916732311248779 -0 -1 -0
0.0844247043132781982 4 0.635113239288330078 -0 -1 -0
-0.831412613391876221 4 0.765408635139465332 -0 -1 -0
0.631861686706542969 4 0.658987820148468018 -0 -1 -0
0.219856575131416321 4 0.348468780517578125 -0 -1 -0
-0.874596655368804932 4 -0.298897445201873779 -0 -1 -0
-0.682112276554107666 4 0.0633717328310012817 -0 -1 -0
-0.730652987957000732 4 -0.137916997075080872 -0 -1 -0
-0.257089346647262573 4 0.0198005810379981995 -0 -1 -0
-0.873335659503936768 4 -0.512894988059997559 -0 -1 -0
-0.489228427410125732 4 -0.106113165616989136 -0 -1 -0
0.273318827152252197 4 0.765336990356445312 -0 -1 -0
-0.50801616907119751 4 0.352735400199890137 -0 -1 -0
-0.272553175687789917 4 -0.196829766035079956 -0 -1 -0
-0.768240213394165039 4 0.089811176061630249 -0 -1 -0
0.963510274887084961 4 0.985723435878753662 -0 -1 -0
-0.341554611921310425 4 0.780288934707641602 -0 -1 -0
-0.127394944429397583 4 -0.0412024110555648804 -0 -1 -0
-0.179871633648872375 4 0.952790915966033936 -0 -1 -0
-0.725900650024414062 4 -0.0488787852227687836 -0 -1 -0
-0.720096349716186523 4 -0.528205335140228271 -0 -1 -0
0.287030637264251709 4 0.635181784629821777 -0 -1 -0
0.0374526642262935638 4 0.747358024120330811 -0 -1 -0
-0.0279998201876878738 4 0.731395184993743896 -0 -1 -0
0.407003551721572876 4 0.45123174786567688 -0 -1 -0
0.427912771701812744 4 0.569935262203216553 -0 -1 -0
0.290607064962387085 4 0.88965761661529541 -0 -1 -0
-0.834436535835266113 4 0.899186372756958008 -0 -1 -0
-0.5539093017578125 4 0.433453857898712158 -0 -1 -0
-0.392412245273590088 4 0.843302130699157715 -0 -1 -0
-0.357105344533920288 4 0.90404963493347168 -0 -1 -0
0.526968777179718018 4 0.596785843372344971 -0 -1 -0
-0.840041160583496094 4 0.0431806966662406921 -0 -1 -0
-0.85740208625793457 4 -0.250517010688781738 -0 -1 -0
-0.125008434057235718 4 0.0342354178428649902 -0 -1 -0
-0.999402940273284912 4 -0.180911734700202942 -0 -1 -0
-0.583208620548248291 4 0.185835555195808411 -0 -1 -0
-0.0157514028251171112 4 0.511224448680877686 -0 -1 -0
-0.285313934087753296 4 0.681972682476043701 -0 -1 -0
-0.745598435401916504 4 0.546497762203216553 -0 -1 -0
-0.424719363451004028 4 -0.368885934352874756 -0 -1 -0
-0.359315305948257446 4 0.342404931783676147 -0 -1 -0
-0.11115710437297821 4 0.44503900408744812 -0 -1 -0
-0.901707231998443604 4 0.475817650556564331 -0 -1 -0
-0.146685510873794556 4 0.170384496450424194 -0 -1 -0
0.145673096179962158 4 0.399679124355316162 -0 -1 -0
-0.472377926111221313 4 -0.0608724132180213928 -0 -1 -0
0.355630487203598022 4 0.954102396965026855 -0 -1 -0
-0.422352075576782227 4 0.586415231227874756 -0 -1 -0
-0.195163741707801819 4 0.634538948535919189 -0 -1 -0
-0.703699469566345215 4 0.209875762462615967 -0 -1 -0
0.366963028907775879 4 0.851404070854187012 -0 -1 -0
-0.923021852970123291 4 -0.895747780799865723 -0 -1 -0
-0.422672361135482788 4 0.388197064399719238 -0 -1 -0
0.658697545528411865 4 0.903791487216949463 -0 -1 -0
-0.11310943216085434 4 0.623854100704193115 -0 -1 -0
0.652354240417480469 4 0.834702491760253906 -0 -1 -0
-0.990956783294677734 4 0.0189230367541313171 -0 -1 -0
-0.636274516582489014 4 -0.473730951547622681 -0 -1 -0
-0.137120038270950317 4 0.0809331238269805908 -0 -1 -0
0.120002664625644684 4 0.477110892534255981 -0 -1 -0
0.156373724341392517 4 0.725320637226104736 -0 -1 -0
-0.28102758526802063 4 -0.0807965025305747986 -0 -1 -0
-0.53929591178894043 4 0.821458578109741211 -0 -1 -0
-0.410921156406402588 4 0.946863949298858643 -0 -1 -0
0.042258772999048233 4 0.945768058300018311 -0 -1 -0
0.162806808948516846 4 0.559505939483642578 -0 -1 -0
-0.778450191020965576 4 0.671424329280853271 -0 -1 -0
-0.398548990488052368 4 0.216308891773223877 -0 -1 -0
-0.676182866096496582 4 0.874985575675964355 -0 -1 -0
-0.73900294303894043 4 0.972604334354400635 -0 -1 -0
-0.172502294182777405 4 -0.056207563728094101 -0 -1 -0
-0.994301557540893555 4 -0.732833623886108398 -0 -1 -0
-0.950125277042388916 4 0.12247622013092041 -0 -1 -0
0.528285980224609375 4 0.659459173679351807 -0 -1 -0
-0.384690433740615845 4 0.651027858257293701 -0 -1 -0
-0.998774111270904541 4 0.662806272506713867 -0 -1 -0
-0.179221257567405701 4 0.115518867969512939 -0 -1 -0
-0.168086215853691101 4 0.874121606349945068 -0 -1 -0
0.239846900105476379 4 0.430480003356933594 -0 -1 -0
-0.913667917251586914 4 0.346516013145446777 -0 -1 -0
0.577642977237701416 4 0.957985937595367432 -0 -1 -0
-0.159248307347297668 4 -0.115701146423816681 -0 -1 -0
-0.976321399211883545 4 0.468832939863204956 -0 -1 -0
-0.0528191439807415009 4 0.0142630944028496742 -0 -1 -0
-0.598500549793243408 4 0.303531289100646973 -0 -1 -0
-0.794234573841094971 4 0.370286107063293457 -0 -1 -0
-0.599175512790679932 4 0.795141279697418213 -0 -1 -0
-0.115924477577209473 4 0.924550473690032959 -0 -1 -0
0.702744126319885254 4 0.990277945995330811 -0 -1 -0
-0.827295243740081787 4 -0.45496368408203125 -0 -1 -0
-0.617810964584350586 4 0.221870094537734985 -0 -1 -0
-0.444813430309295654 4 0.330721527338027954 -0 -1 -0
-0.961201727390289307 4 0.266475647687911987 -0 -1 -0
-0.149470254778862 4 0.752346992492675781 -0 -1 -0
-0.600392639636993408 4 0.621612727642059326 -0 -1 -0
-0.623450219631195068 4 -0.616425693035125732 -0 -1 -0
-0.836201190948486328 4 -0.0477524399757385254 -0 -1 -0
-0.990597665309906006 4 -0.630672931671142578 -0 -1 -0
-0.6073341965675354 4 -0.343067735433578491 -0 -1 -0
-0.643827855587005615 4 0.92576676607131958 -0 -1 -0
-0.540325462818145752 4 0.701322853565216064 -0 -1 -0
-0.697236716747283936 4 0.387082129716873169 -0 -1 -0
-0.605037808418273926 4 -0.418493688106536865 -0 -1 -0
-0.880005896091461182 4 -0.706334829330444336 -0 -1 -0
0.080260254442691803 4 0.499247848987579346 -0 -1 -0
-0.275188177824020386 4 0.774273216724395752 -0 -1 -0
-0.853517234325408936 4 -0.3538685142993927 -0 -1 -0
-0.432340472936630249 4 0.904037058353424072 -0 -1 -0
0.182691201567649841 4 0.774686098098754883 -0 -1 -0
0.177532538771629333 4 0.502691566944122314 -0 -1 -0
0.0664397552609443665 4 0.450145989656448364 -0 -1 -0
0.0498820804059505463 4 0.28124701976776123 -0 -1 -0
0.255349874496459961 4 0.297709643840789795 -0 -1 -0
-0.660042762756347656 4 -0.332673221826553345 -0 -1 -0
0.51437002420425415 4 0.726585090160369873 -0 -1 -0
-0.857009828090667725 4 0.598943531513214111 -0 -1 -0
0.138443648815155029 4 0.917202532291412354 -0 -1 -0
-0.72806316614151001 4 -0.618733108043670654 -0 -1 -0
-0.23617178201675415 4 -0.124754272401332855 -0 -1 -0
-0.222014769911766052 4 -0.049064934253692627 -0 -1 -0
-0.356714189052581787 4 -0.17563176155090332 -0 -1 -0
-0.187440410256385803 4 0.0285684429109096527 -0 -1 -0
-0.485656589269638062 4 0.268327146768569946 -0 -1 -0
0.7293892502784729 4 0.845872581005096436 -0 -1 -0
-0.0356583818793296814 4 0.979632854461669922 -0 -1 -0
-0.949552357196807861 4 -0.596837341785430908 -0 -1 -0
-0.044564027339220047 4 0.798429310321807861 -0 -1 -0
-0.519351840019226074 4 0.12255655974149704 -0 -1 -0
-0.815524756908416748 4 0.841305375099182129 -0 -1 -0
-0.0733086243271827698 4 0.340332448482513428 -0 -1 -0
0.182991951704025269 4 0.432725697755813599 -0 -1 -0
-0.990371227264404297 4 0.91344839334487915 -0 -1 -0
-0.556293666362762451 4 0.493159562349319458 -0 -1 -0
-0.699835538864135742 4 0.935792446136474609 -0 -1 -0
-0.749817550182342529 4 -0.181141674518585205 -0 -1 -0
-0.991364598274230957 4 -0.442706048488616943 -0 -1 -0
0.666647374629974365 4 0.951255917549133301 -0 -1 -0
-0.0513892807066440582 4 0.431056290864944458 -0 -1 -0
0.350058764219284058 4 0.799789190292358398 -0 -1 -0
-0.275864601135253906 4 -0.244632944464683533 -0 -1 -0
-0.694170534610748291 4 0.0147691536694765091 -0 -1 -0
-0.409889191389083862 4 0.537380039691925049 -0 -1 -0
-0.296861022710800171 4 0.92199862003326416 -0 -1 -0
-0.147631064057350159 4 0.58911287784576416 -0 -1 -0
-0.0844435766339302063 4 0.766087055206298828 -0 -1 -0
0.0369216613471508026 4 0.545208930969238281 -0 -1 -0
-0.463555902242660522 4 0.801960766315460205 -0 -1 -0
-0.936375439167022705 4 -0.285752981901168823 -0 -1 -0
-0.431232482194900513 4 -0.10268460214138031 -0 -1 -0
0.496199607849121094 4 0.956070125102996826 -0 -1 -0
-0.251030772924423218 4 0.824126064777374268 -0 -1 -0
0.0789932757616043091 4 0.109801948070526123 -0 -1 -0
0.369379311800003052 4 0.625739395618438721 -0 -1 -0
-0.328260421752929688 4 0.30770111083984375 -0 -1 -0
-0.672515451908111572 4 -0.419080555438995361 -0 -1 -0
-0.865926980972290039 4 0.276200056076049805 -0 -1 -0
0.111259400844573975 4 0.365462660789489746 -0 -1 -0
-0.545652508735656738 4 0.21649208664894104 -0 -1 -0
0.0874533653259277344 4 0.557213664054870605 -0 -1 -0
-0.125029817223548889 4 0.341858655214309692 -0 -1 -0
-0.521512866020202637 4 -0.464976221323013306 -0 -1 -0
-0.190983489155769348 4 -0.1628294438123703 -0 -1 -0
-0.613148331642150879 4 -0.184598907828330994 -0 -1 -0
0.713564276695251465 4 0.75048750638961792 -0 -1 -0
-0.827428936958312988 4 0.541018068790435791 -0 -1 -0
-0.949522137641906738 4 -0.347589194774627686 -0 -1 -0
-0.744742929935455322 4 0.0474739968776702881 -0 -1 -0
-0.602853715419769287 4 -0.079494088888168335 -0 -1 -0
0.793702781200408936 4 0.95818716287612915 -0 -1 -0
-0.726915121078491211 4 0.436986804008483887 -0 -1 -0
-0.824218153953552246 4 0.689021527767181396 -0 -1 -0
-0.649553179740905762 4 -0.126569375395774841 -0 -1 -0
-0.652887046337127686 4 0.339476495981216431 -0 -1 -0
-0.807865321636199951 4 -0.578533649444580078 -0 -1 -0
-0.668397903442382812 4 -0.520009338855743408 -0 -1 -0
-0.431856662034988403 4 -0.217324361205101013 -0 -1 -0
-0.272352039813995361 4 0.868845105171203613 -0 -1 -0
-0.115356847643852234 4 0.492818176746368408 -0 -1 -0
-0.507899463176727295 4 -0.179378882050514221 -0 -1 -0
0.65032428503036499 4 0.777088463306427002 -0 -1 -0
-0.121002472937107086 0.0754117518663406372 0.882303535938262939 -0.305310666561126709 0.95212024450302124 -0.015888972207903862
-0.0845500677824020386 0.0877207368612289429 0.919457197189331055 -0.305310666561126709 0.95212024450302124 -0.015888972207903862
-0.0320287458598613739 0.00142005633097141981 -0.124299988150596619 -0.0151565168052911758 0.999770224094390869 -0.0151565168052911758
-0.0858528092503547668 0.00122578314039856195 -0.0832907781004905701 -0.0151565168052911758 0.999770224094390869 -0.0151565168052911758
-0.0498771220445632935 0.000403397047193720937 -0.17351357638835907 -0.0151565168052911758 0.999770224094390869 -0.0151565168052911758
-0.00421873759478330612 0.00101607595570385456 -0.178757786750793457 -0.0151565168052911758 0.999770224094390869 -0.0151565168052911758
-0.112337067723274231 4.43226017523556948e-05 -0.134739279747009277 -0.0151565168052911758 0.999770224094390869 -0.0151565168052911758
-0.148642793297767639 0.00054702849593013525 -0.0652735233306884766 -0.0151565168052911758 0.999770224094390869 -0.0151565168052911758
0.916094779968261719 0.0780806317925453186 -0.11443803459405899 -0.015888972207903862 0.95212024450302124 -0.305310666561126709
0.914544880390167236 0.0995418578386306763 -0.0474299117922782898 -0.015888972207903862 0.95212024450302124 -0.305310666561126709
0.439498186111450195 0.0417980924248695374 -0.117327839136123657 -0.102708011865615845 0.972319066524505615 -0.209873124957084656
0.381578207015991211 0.0481288544833660126 -0.0596531443297863007 -0.102708011865615845 0.972319066524505615 -0.209873124957084656
0.401091128587722778 0 -0.539164304733276367 -0 1 -0
0.378477394580841064 0 -0.589183270931243896 -0 1 -0
0.550337016582489014 0 -0.577626049518585205 -0 1 -0
0.51987987756729126 0 -0.661741673946380615 -0 1 -0
0.535746276378631592 0 -0.713328003883361816 -0 1 -0
0.597776651382446289 0 -0.726271688938140869 -0 1 -0
0.489839643239974976 0 -0.585093021392822266 -0 1 -0
0.460013419389724731 0 -0.547591269016265869 -0 1 -0
0.60888206958770752 0 -0.646004140377044678 -0 1 -0
0.476715505123138428 0 -0.644988834857940674 -0 1 -0
0.42571711540222168 0 -0.66647714376449585 -0 1 -0
0.486908555030822754 0 -0.697102248668670654 -0 1 -0
0.33194240927696228 0 -0.575389444828033447 -0 1 -0
0.278876453638076782 0 -0.508367359638214111 -0 1 -0
0.326680958271026611 0 -0.524081289768218994 -0 1 -0
0.173446759581565857 1.30650857954606181e-06 -0.382618367671966553 -3.19999999192077667e-05 1 -3.19999999192077667e-05
0.241322562098503113 4.82797702261450468e-07 -0.476235121488571167 -3.19999999192077667e-05 1 -3.19999999192077667e-05
0.128624573349952698 0 -0.401967078447341919 -0 1 -0
0.179668039083480835 0 -0.437727928161621094 -0 1 -0
0.276205211877822876 0 -0.616517186164855957 -0 1 -0
0.269823998212814331 0 -0.559555292129516602 -0 1 -0
0.165764540433883667 0 -0.511409878730773926 -0 1 -0
0.223130121827125549 0 -0.586733400821685791 -0 1 -0
0.0703796669840812683 0 -0.344277501106262207 -0 1 -0
0.0307986680418252945 0 -0.285875976085662842 -0 1 -0
0.0263507291674613953 0 -0.367257177829742432 -0 1 -0
0.0682674571871757507 0 -0.398583739995956421 -0 1 -0
0.0972953140735626221 0 -0.442260473966598511 -0 1 -0
0.134323149919509888 0 -0.550237417221069336 -0 1 -0
0.132235303521156311 0 -0.624321341514587402 -0 1 -0
0.0357582494616508484 0 -0.432373583316802979 -0 1 -0
0.0976213887333869934 0 -0.48876345157623291 -0 1 -0
0.0546271316707134247 0 -0.510806679725646973 -0 1 -0
0.0977641567587852478 0 -0.579147696495056152 -0 1 -0
0.263259947299957275 0 -0.710591256618499756 -0 1 -0
0.316125959157943726 0 -0.70154881477355957 -0 1 -0
0.210784032940864563 0 -0.642965376377105713 -0 1 -0
0.342984855175018311 0 -0.636162102222442627 -0 1 -0
0.0496332384645938873 0 -0.565612673759460449 -0 1 -0
0.210418373346328735 0 -0.738429546356201172 -0 1 -0
0.170680969953536987 0 -0.688062191009521484 -0 1 -0
0.0149147920310497284 0 -0.632434546947479248 -0 1 -0
0.0726456642150878906 0 -0.630097746849060059 -0 1 -0
-0.0957153290510177612 0 -0.425570279359817505 -0 1 -0
-0.0568235665559768677 0 -0.477321118116378784 -0 1 -0
-0.109690383076667786 0 -0.498028606176376343 -0 1 -0
-0.0150716900825500488 0 -0.589910149574279785 -0 1 -0
-0.0684922337532043457 0 -0.52532583475112915 -0 1 -0
-0.045172959566116333 0 -0.422989040613174438 -0 1 -0
-0.0100240465253591537 0 -0.479811221361160278 -0 1 -0
-0.112581931054592133 0 -0.582933247089385986 -0 1 -0
0.0423459485173225403 0 -0.70858609676361084 -0 1 -0
0.0911232903599739075 0 -0.723954916000366211 -0 1 -0
-0.0426749028265476227 0 -0.633637309074401855 -0 1 -0
-0.00633220141753554344 0 -0.690864026546478271 -0 1 -0
-0.0965924784541130066 0 -0.625305533409118652 -0 1 -0
-0.0606290102005004883 0 -0.684214472770690918 -0 1 -0
0.203927353024482727 0 -0.842483162879943848 -0 1 -0
0.175497815012931824 0 -0.7760048508644104 -0 1 -0
0.0459234565496444702 0 -0.776843428611755371 -0 1 -0
0.117014743387699127 0 -0.779106378555297852 -0 1 -0
0.0977787673473358154 0 -0.85116046667098999 -0 1 -0
-0.0403309762477874756 0 -0.72809600830078125 -0 1 -0
-0.0887043848633766174 0 -0.733302950859069824 -0 1 -0
-0.11135391891002655 0 -0.687467038631439209 -0 1 -0
-0.017015138640999794 0 -0.81950908899307251 -0 1 -0
-0.072679370641708374 0 -0.778423130512237549 -0 1 -0
-0.162663176655769348 0 -0.612334191799163818 -0 1 -0
-0.222737878561019897 0 -0.588921844959259033 -0 1 -0
-0.208150938153266907 0 -0.521728754043579102 -0 1 -0
-0.17037472128868103 0 -0.566358268260955811 -0 1 -0
-0.179121270775794983 0 -0.664856493473052979 -0 1 -0
-0.0894603058695793152 0 -0.860693275928497314 -0 1 -0
-0.239276647567749023 0 -0.669937312602996826 -0 1 -0
-0.191378295421600342 0 -0.709014773368835449 -0 1 -0
-0.136698022484779358 0 -0.758746325969696045 -0 1 -0
-0.146605357527732849 0 -0.80845409631729126 -0 1 -0
0.031056603416800499 0 -0.99310535192489624 -0 1 -0
0.0670899450778961182 0 -0.961967170238494873 -0 1 -0
0.11132282018661499 0 -0.977384984493255615 -0 1 -0
0.107269980013370514 0 -0.916550874710083008 -0 1 -0
0.0397363454103469849 0 -0.896502017974853516 -0 1 -0
-0.0072215590626001358 0 -0.950890660285949707 -0 1 -0
-0.0672089233994483948 0 -0.912824690341949463 -0 1 -0
-0.188493579626083374 0 -0.831611037254333496 -0 1 -0
-0.148762866854667664 0 -0.857023239135742188 -0 1 -0
-0.229499593377113342 0 -0.770803987979888916 -0 1 -0
-0.0434960275888442993 0 -0.993318855762481689 -0 1 -0
-0.122816532850265503 0 -0.923210263252258301 -0 1 -0
-0.0789271071553230286 0 -0.957316935062408447 -0 1 -0
-0.12597326934337616 0 -0.975757777690887451 -0 1 -0
-0.187561839818954468 0 -0.918524384498596191 -0 1 -0
-0.374924182891845703 0 -0.674249589443206787 -0 1 -0
-0.314421355724334717 0 -0.738428354263305664 -0 1 -0
-0.251746654510498047 0 -0.867767751216888428 -0 1 -0
-0.308179289102554321 0 -0.788391053676605225 -0 1 -0
-0.263769596815109253 0 -0.731415152549743652 -0 1 -0
-0.291216284036636353 0 -0.643857300281524658 -0 1 -0
-0.355273455381393433 0 -0.807374775409698486 -0 1 -0
-0.228875771164894104 0 -0.953535914421081543 -0 1 -0
-0.209516167640686035 0 -0.999807119369506836 -0 1 -0
-0.286531686782836914 0 -0.921872138977050781 -0 1 -0
-0.329860448837280273 0 -0.901239871978759766 -0 1 -0
-0.489542782306671143 0 -0.692249834537506104 -0 1 -0
-0.399596363306045532 0 -0.847055435180664062 -0 1 -0
-0.429006636142730713 0 -0.774656534194946289 -0 1 -0
-0.400625616312026978 0 -0.628760457038879395 -0 1 -0
-0.439976483583450317 0 -0.670125007629394531 -0 1 -0
-0.35879090428352356 0 -0.5746917724609375 -0 1 -0
-0.346395909786224365 0 -0.622634470462799072 -0 1 -0
-0.445623308420181274 0 -0.598266482353210449 -0 1 -0
-0.467870473861694336 0 -0.530350327491760254 -0 1 -0
-0.39078107476234436 0 -0.531450927257537842 -0 1 -0
-0.578938961029052734 0 -0.601697087287902832 -0 1 -0
-0.521250307559967041 0 -0.557517111301422119 -0 1 -0
-0.569884181022644043 0 -0.542401492595672607 -0 1 -0
-0.521904408931732178 0 -0.505259573459625244 -0 1 -0
-0.500119447708129883 0 -0.738311111927032471 -0 1 -0
-0.555473923683166504 0 -0.653495669364929199 -0 1 -0
-0.455310702323913574 0 -0.820379853248596191 -0 1 -0
-0.604198634624481201 0 -0.670323431491851807 -0 1 -0
-0.556008517742156982 0 -0.71196138858795166 -0 1 -0
-0.613916456699371338 0 -0.744369745254516602 -0 1 -0
-0.506759345531463623 0 -0.85567629337310791 -0 1 -0
-0.539070963859558105 0 -0.769222438335418701 -0 1 -0
-0.508453547954559326 0 -0.806976914405822754 -0 1 -0
-0.733771085739135742 0 -0.562018096446990967 -0 1 -0
-0.744173347949981689 0 -0.613082230091094971 -0 1 -0
-0.697352170944213867 0 -0.602479517459869385 -0 1 -0
-0.669829964637756348 0 -0.517451703548431396 -0 1 -0
-0.630514919757843018 0 -0.595620036125183105 -0 1 -0
-0.65803980827331543 0 -0.634566307067871094 -0 1 -0
-0.716070771217346191 0 -0.428976356983184814 -0 1 -0
-0.610657334327697754 0 -0.498972535133361816 -0 1 -0
-0.642332494258880615 0 -0.392431795597076416 -0 1 -0
-0.641935944557189941 0 -0.459168493747711182 -0 1 -0
-0.828483045101165771 0 -0.476063638925552368 -0 1 -0
-0.873678088188171387 0 -0.487923353910446167 -0 1 -0
-0.762597918510437012 0 -0.51232534646987915 -0 1 -0
-0.781445145606994629 0 -0.558557033538818359 -0 1 -0
-0.800841689109802246 0 -0.407426267862319946 -0 1 -0
-0.751952469348907471 0 -0.456725656986236572 -0 1 -0
-0.83144080638885498 0 -0.586156547069549561 -0 1 -0
-0.848267614841461182 0 -0.542199552059173584 -0 1 -0
-0.749669194221496582 0 -0.726868629455566406 -0 1 -0
-0.690916359424591064 0 -0.691000163555145264 -0 1 -0
-0.675364375114440918 0 -0.736609101295471191 -0 1 -0
-0.794177055358886719 0 -0.641113936901092529 -0 1 -0
-0.75376969575881958 0 -0.676530301570892334 -0 1 -0
-0.843761563301086426 0 -0.647217929363250732 -0 1 -0
-0.940829694271087646 0 -0.455732047557830811 -0 1 -0
-0.930076360702514648 0 -0.407779961824417114 -0 1 -0
-0.881581544876098633 0 -0.604166626930236816 -0 1 -0
-0.942065775394439697 0 -0.534501075744628906 -0 1 -0
-0.862382829189300537 0 -0.284306257963180542 -0 1 -0
-0.794273674488067627 0 -0.361461848020553589 -0 1 -0
-0.845693409442901611 0 -0.372066617012023926 -0 1 -0
-0.947272300720214844 0 -0.321701735258102417 -0 1 -0
-0.885385513305664062 0 -0.333698570728302002 -0 1 -0
-0.902290940284729004 0 -0.253223180770874023 -0 1 -0
-0.957110464572906494 0 -0.263307005167007446 -0 1 -0
-0.999431133270263672 0 -0.135835915803909302 -0 1 -0
-0.936815440654754639 0 -0.205076783895492554 -0 1 -0
-0.998447716236114502 0 -0.205432206392288208 -0 1 -0
-0.81660616397857666 0 -0.222939789295196533 -0 1 -0
-0.778149068355560303 0 -0.272650688886642456 -0 1 -0
-0.81374514102935791 0 -0.303852319717407227 -0 1 -0
-0.887486934661865234 0 -0.186055392026901245 -0 1 -0
-0.964872837066650391 0 -0.0365037843585014343 -0 1 -0
-0.942895889282226562 0 -0.123747974634170532 -0 1 -0
-0.818253934383392334 0 -0.122105106711387634 -0 1 -0
-0.902079880237579346 0 -0.0670794025063514709 -0 1 -0
-0.769065797328948975 0 -0.212161630392074585 -0 1 -0
-0.810898184776306152 0 -0.173952504992485046 -0 1 -0
-0.732021212577819824 0 -0.372298508882522583 -0 1 -0
-0.722765982151031494 0 -0.323484331369400024 -0 1 -0
-0.681300342082977295 0 -0.364083021879196167 -0 1 -0
-0.733230710029602051 0 -0.153211683034896851 -0 1 -0
-0.688695907592773438 0 -0.240001976490020752 -0 1 -0
-0.633087038993835449 0 -0.303459674119949341 -0 1 -0
-0.687603592872619629 0 -0.123963646590709686 -0 1 -0
-0.734607219696044922 0 -0.0857085511088371277 -0 1 -0
-0.81208115816116333 0 -0.0602848008275032043 -0 1 -0
-0.818127214908599854 0 -0.00362373190000653267 -0 1 -0
-0.681991040706634521 0 -0.184842959046363831 -0 1 -0
-0.983062386512756348 0 0.00980167929083108902 -0 1 -0
-0.927474081516265869 0 0.0236906018108129501 -0 1 -0
-0.821938812732696533 0 0.0603764988481998444 -0 1 -0
-0.887924611568450928 0 0.0566488616168498993 -0 1 -0
-0.884979188442230225 0 0.107051871716976166 -0 1 -0
-0.695163905620574951 0 0.00827945489436388016 -0 1 -0
-0.74090278148651123 0 0.0153658734634518623 -0 1 -0
-0.769870221614837646 0 0.0637031793594360352 -0 1 -0
-0.631698548793792725 0 -0.0995275899767875671 -0 1 -0
-0.630232334136962891 0 -0.0386562123894691467 -0 1 -0
-0.541739881038665771 0 -0.109390199184417725 -0 1 -0
-0.558752834796905518 0 -0.237420931458473206 -0 1 -0
-0.603201925754547119 0 -0.173764497041702271 -0 1 -0
-0.550737619400024414 0 -0.166188716888427734 -0 1 -0
-0.5034446120262146 0 -0.149742007255554199 -0 1 -0
-0.570134997367858887 0 0.0472342446446418762 -0 1 -0
-0.51170051097869873 0 -0.0380973033607006073 -0 1 -0
-0.566758990287780762 0 -0.0214487090706825256 -0 1 -0
-0.704585373401641846 0 0.109952732920646667 -0 1 -0
-0.657062232494354248 0 0.0672325417399406433 -0 1 -0
-0.6457061767578125 0 0.0225968677550554276 -0 1 -0
-0.870838642120361328 0 0.216624796390533447 -0 1 -0
-0.813352346420288086 0 0.132953137159347534 -0 1 -0
-0.695467650890350342 0 0.159796357154846191 -0 1 -0
-0.649453699588775635 0 0.126014605164527893 -0 1 -0
-0.772842705249786377 0 0.20439380407333374 -0 1 -0
-0.828471958637237549 0 0.239826783537864685 -0 1 -0
-0.606046915054321289 0 0.211011931300163269 -0 1 -0
-0.711282730102539062 0 0.234669283032417297 -0 1 -0
-0.654440581798553467 0 0.206586375832557678 -0 1 -0
-0.528967738151550293 0 0.0718735232949256897 -0 1 -0
-0.505075275897979736 0 0.0124427406117320061 -0 1 -0
-0.577153921127319336 0 0.121531888842582703 -0 1 -0
-0.432193219661712646 0 -0.0818536430597305298 -0 1 -0
-0.484873950481414795 0 -0.106946967542171478 -0 1 -0
-0.478939265012741089 0 0.0584079548716545105 -0 1 -0
-0.375778496265411377 0 -0.0702493786811828613 -0 1 -0
-0.383372634649276733 0 -0.0159338917583227158 -0 1 -0
-0.448372930288314819 0 -0.0129252234473824501 -0 1 -0
-0.441614449024200439 0 0.133702352643013 -0 1 -0
-0.489055722951889038 0 0.147747129201889038 -0 1 -0
-0.515530884265899658 0 0.236831933259963989 -0 1 -0
