ply
format ascii 1.0
element vertex 915
property float x
property float y
property float z
property float nx
property float ny
property float nz
end_header
1 1.47836148738861084 -0.394986242055892944 -1 -0 -0
1 1.33013916015625 -0.357228189706802368 -1 -0 -0
1 1.05654215812683105 -0.280365794897079468 -1 -0 -0
1 1.98735606670379639 -0.505893468856811523 -1 -0 -0
1 0.0169080104678869247 -0.0530057139694690704 -1 -0 -0
1 1.00822603702545166 -0.274289846420288086 -1 -0 -0
1 2.35087823867797852 -0.60721743106842041 -1 -0 -0
1 0.441799551248550415 -0.13757854700088501 -1 -0 -0
1 0.388363450765609741 -0.125007420778274536 -1 -0 -0
1 0.563783347606658936 -0.146559327840805054 -1 -0 -0
1 0.830328404903411865 -0.207913070917129517 -1 -0 -0
1 0.957211315631866455 -0.274573981761932373 -1 -0 -0
1 1.5653531551361084 -0.39890250563621521 -1 -0 -0
1 1.40549683570861816 -0.385431408882141113 -1 -0 -0
1 2.95748615264892578 -0.778018414974212646 -1 -0 -0
1 1.3921046257019043 -0.430694490671157837 -1 -0 -0
1 0.0724062100052833557 -0.142635464668273926 -1 -0 -0
1 0.364525377750396729 -0.244219303131103516 -1 -0 -0
1 2.51268625259399414 -0.67606586217880249 -1 -0 -0
1 0.472650140523910522 -0.273612141609191895 -1 -0 -0
1 2.56265902519226074 -0.69495159387588501 -1 -0 -0
1 2.22070074081420898 -0.614559590816497803 -1 -0 -0
1 0.211172878742218018 -0.187590554356575012 -1 -0 -0
1 1.87403786182403564 -0.554572701454162598 -1 -0 -0
1 2.71274542808532715 -0.731171846389770508 -1 -0 -0
1 0.644294321537017822 -0.285836666822433472 -1 -0 -0
1 0.954235374927520752 -0.347954154014587402 -1 -0 -0
1 0.272464931011199951 -0.214392319321632385 -1 -0 -0
1 1.07313859462738037 -0.394870758056640625 -1 -0 -0
1 0.411746233701705933 -0.240358710289001465 -1 -0 -0
1 1.95936310291290283 -0.558547735214233398 -1 -0 -0
1 0.0432838983833789825 -0.193074122071266174 -1 -0 -0
1 0.794569075107574463 -0.347057461738586426 -1 -0 -0
1 0.0894475728273391724 -0.198683559894561768 -1 -0 -0
1 1.66515374183654785 -0.495159238576889038 -1 -0 -0
1 1.43653428554534912 -0.460634768009185791 -1 -0 -0
1 0.703376948833465576 -0.308676183223724365 -1 -0 -0
1 2.31252288818359375 -0.643427491188049316 -1 -0 -0
1 2.10815167427062988 -0.598385453224182129 -1 -0 -0
1 1.22389876842498779 -0.424592941999435425 -1 -0 -0
1 0.873251497745513916 -0.348760932683944702 -1 -0 -0
1 3.09071087837219238 -0.825942516326904297 -1 -0 -0
1 1.0646216869354248 -0.445399940013885498 -1 -0 -0
1 0.424387097358703613 -0.288066655397415161 -1 -0 -0
1 1.83874726295471191 -0.587870240211486816 -1 -0 -0
1 1.90297281742095947 -0.600918412208557129 -1 -0 -0
1 3.17323637008666992 -0.840805232524871826 -1 -0 -0
1 1.67396986484527588 -0.539415717124938965 -1 -0 -0
1 2.15935158729553223 -0.647153496742248535 -1 -0 -0
1 1.22215712070465088 -0.474506616592407227 -1 -0 -0
1 1.47300601005554199 -0.493213087320327759 -1 -0 -0
1 0.335529983043670654 -0.295266121625900269 -1 -0 -0
1 1.02309608459472656 -0.417486876249313354 -1 -0 -0
1 0.738075077533721924 -0.338360697031021118 -1 -0 -0
1 0.535639643669128418 -0.312387585639953613 -1 -0 -0
1 1.58646893501281738 -0.538094997406005859 -1 -0 -0
1 0.179912358522415161 -0.265690773725509644 -1 -0 -0
1 1.72594141960144043 -0.554740965366363525 -1 -0 -0
1 1.98474693298339844 -0.609953880310058594 -1 -0 -0
1 0.904772162437438965 -0.386049091815948486 -1 -0 -0
1 0.965232551097869873 -0.41106000542640686 -1 -0 -0
1 1.37768161296844482 -0.499652057886123657 -1 -0 -0
1 1.31663429737091064 -0.47795712947845459 -1 -0 -0
1 1.15386998653411865 -0.440254777669906616 -1 -0 -0
1 1.27432525157928467 -0.450433492660522461 -1 -0 -0
1 1.77231287956237793 -0.566086053848266602 -1 -0 -0
1 3.47187280654907227 -0.900459051132202148 -1 -0 -0
1 0.257832884788513184 -0.264993250370025635 -1 -0 -0
1 2.25859975814819336 -0.652706801891326904 -1 -0 -0
1 2.61589837074279785 -0.732420563697814941 -1 -0 -0
1 0.663183689117431641 -0.348717004060745239 -1 -0 -0
1 0.384596288204193115 -0.319409668445587158 -1 -0 -0
1 1.52855634689331055 -0.532713055610656738 -1 -0 -0
1 0.120347395539283752 -0.255965530872344971 -1 -0 -0
1 1.30265390872955322 -0.531814932823181152 -1 -0 -0
1 0.994391739368438721 -0.453975200653076172 -1 -0 -0
1 2.03460812568664551 -0.64618450403213501 -1 -0 -0
1 0.0424377918243408203 -0.281846821308135986 -1 -0 -0
1 0.518386900424957275 -0.367718636989593506 -1 -0 -0
1 0.817779421806335449 -0.430586397647857666 -1 -0 -0
1 2.42656326293945312 -0.705749869346618652 -1 -0 -0
1 2.37804985046386719 -0.698649466037750244 -1 -0 -0
1 1.41921234130859375 -0.523900449275970459 -1 -0 -0
1 1.23365068435668945 -0.519692718982696533 -1 -0 -0
1 1.61269152164459229 -0.579818964004516602 -1 -0 -0
1 1.15962421894073486 -0.509826064109802246 -1 -0 -0
1 0.694807112216949463 -0.400407135486602783 -1 -0 -0
1 3.2454078197479248 -0.863649845123291016 -1 -0 -0
1 0.77616506814956665 -0.397497683763504028 -1 -0 -0
1 2.73737382888793945 -0.780696630477905273 -1 -0 -0
1 3.0258476734161377 -0.827145993709564209 -1 -0 -0
1 0.450125843286514282 -0.335959166288375854 -1 -0 -0
1 2.09568333625793457 -0.648583471775054932 -1 -0 -0
1 2.52832627296447754 -0.739033102989196777 -1 -0 -0
1 0.211105450987815857 -0.302254945039749146 -1 -0 -0
1 0.281771272420883179 -0.33845210075378418 -1 -0 -0
1 0.932710826396942139 -0.451201915740966797 -1 -0 -0
1 0.879486024379730225 -0.428344964981079102 -1 -0 -0
1 1.46841025352478027 -0.558739066123962402 -1 -0 -0
1 0.590212106704711914 -0.400057464838027954 -1 -0 -0
1 2.32819271087646484 -0.712050199508666992 -1 -0 -0
1 0.343395024538040161 -0.344737380743026733 -1 -0 -0
1 2.80079126358032227 -0.775308370590209961 -1 -0 -0
1 0.384164959192276001 -0.370641261339187622 -1 -0 -0
1 0.504642844200134277 -0.415359258651733398 -1 -0 -0
1 2.46291470527648926 -0.742688298225402832 -1 -0 -0
1 1.51566410064697266 -0.579112708568572998 -1 -0 -0
1 0.17291317880153656 -0.380845367908477783 -1 -0 -0
1 0.341102778911590576 -0.398174792528152466 -1 -0 -0
1 0.680438637733459473 -0.454279631376266479 -1 -0 -0
1 0.409090638160705566 -0.42611086368560791 -1 -0 -0
1 0.293547928333282471 -0.383764207363128662 -1 -0 -0
1 0.112019233405590057 -0.375410944223403931 -1 -0 -0
1 1.73642981052398682 -0.631125807762145996 -1 -0 -0
1 1.83172333240509033 -0.6462058424949646 -1 -0 -0
1 0.219289883971214294 -0.374495118856430054 -1 -0 -0
1 0.452826172113418579 -0.394507497549057007 -1 -0 -0
1 1.68045556545257568 -0.630597352981567383 -1 -0 -0
1 1.09267091751098633 -0.505672872066497803 -1 -0 -0
1 1.36190485954284668 -0.574090361595153809 -1 -0 -0
1 2.65412473678588867 -0.773539423942565918 -1 -0 -0
1 2.90530681610107422 -0.816818773746490479 -1 -0 -0
1 1.55675697326660156 -0.600934207439422607 -1 -0 -0
1 0.571189761161804199 -0.458893328905105591 -1 -0 -0
1 2.08409833908081055 -0.698330938816070557 -1 -0 -0
1 1.42651569843292236 -0.592597603797912598 -1 -0 -0
1 0.623878359794616699 -0.451706826686859131 -1 -0 -0
1 1.94454407691955566 -0.663831114768981934 -1 -0 -0
1 3.38115668296813965 -0.898268163204193115 -1 -0 -0
1 2.24857306480407715 -0.720498740673065186 -1 -0 -0
1 0.88001638650894165 -0.474859774112701416 -1 -0 -0
1 1.02027237415313721 -0.502733707427978516 -1 -0 -0
1 0.722672760486602783 -0.484181851148605347 -1 -0 -0
1 0.0354765020310878754 -0.335358619689941406 -1 -0 -0
1 2.20054078102111816 -0.695758461952209473 -1 -0 -0
1 0.930246412754058838 -0.520563244819641113 -1 -0 -0
1 0.125946372747421265 -0.425735235214233398 -1 -0 -0
1 1.16917634010314941 -0.576731026172637939 -1 -0 -0
1 0.0618850812315940857 -0.407996922731399536 -1 -0 -0
1 3.14153861999511719 -0.878794491291046143 -1 -0 -0
1 2.5385591983795166 -0.783438324928283691 -1 -0 -0
1 0.674185395240783691 -0.517385125160217285 -1 -0 -0
1 1.50371932983398438 -0.644855141639709473 -1 -0 -0
1 0.326590240001678467 -0.449158161878585815 -1 -0 -0
1 1.60638999938964844 -0.645356714725494385 -1 -0 -0
1 3.06883096694946289 -0.868138670921325684 -1 -0 -0
1 1.06404733657836914 -0.542631566524505615 -1 -0 -0
1 0.192586138844490051 -0.424437999725341797 -1 -0 -0
1 2.81992483139038086 -0.819221436977386475 -1 -0 -0
1 0.578984200954437256 -0.514566659927368164 -1 -0 -0
1 1.11157071590423584 -0.555002450942993164 -1 -0 -0
1 0.881848692893981934 -0.55255502462387085 -1 -0 -0
1 2.60474562644958496 -0.785157680511474609 -1 -0 -0
1 1.89977240562438965 -0.691216528415679932 -1 -0 -0
1 0.817981183528900146 -0.548972368240356445 -1 -0 -0
1 0.00956963188946247101 -0.413952559232711792 -1 -0 -0
1 1.35043370723724365 -0.620851755142211914 -1 -0 -0
1 2.2962043285369873 -0.744260013103485107 -1 -0 -0
1 0.436839550733566284 -0.495256632566452026 -1 -0 -0
1 1.23696184158325195 -0.592122912406921387 -1 -0 -0
1 0.272161573171615601 -0.429868519306182861 -1 -0 -0
1 0.46855241060256958 -0.452708631753921509 -1 -0 -0
1 0.522226214408874512 -0.511159718036651611 -1 -0 -0
1 1.56769752502441406 -0.687823951244354248 -1 -0 -0
1 0.977119982242584229 -0.605766832828521729 -1 -0 -0
1 1.85025453567504883 -0.70947033166885376 -1 -0 -0
1 2.01051783561706543 -0.721774697303771973 -1 -0 -0
1 0.200349882245063782 -0.513582885265350342 -1 -0 -0
1 2.20538997650146484 -0.773405551910400391 -1 -0 -0
1 2.94383382797241211 -0.864308297634124756 -1 -0 -0
1 1.07769763469696045 -0.594818353652954102 -1 -0 -0
1 0.0161197278648614883 -0.461654931306838989 -1 -0 -0
1 2.3937838077545166 -0.783329546451568604 -1 -0 -0
1 0.269329667091369629 -0.489887923002243042 -1 -0 -0
1 0.356650501489639282 -0.492335468530654907 -1 -0 -0
1 1.94639837741851807 -0.713063716888427734 -1 -0 -0
1 0.141445979475975037 -0.516969799995422363 -1 -0 -0
1 1.02666902542114258 -0.588338017463684082 -1 -0 -0
1 0.758079051971435547 -0.555096030235290527 -1 -0 -0
1 1.72377336025238037 -0.69214242696762085 -1 -0 -0
1 1.38225078582763672 -0.659144103527069092 -1 -0 -0
1 0.100769594311714172 -0.483152180910110474 -1 -0 -0
1 2.74153542518615723 -0.835151493549346924 -1 -0 -0
1 2.1332240104675293 -0.753867924213409424 -1 -0 -0
1 0.936974942684173584 -0.573990583419799805 -1 -0 -0
1 2.34279179573059082 -0.790165841579437256 -1 -0 -0
1 3.20181488990783691 -0.894105374813079834 -1 -0 -0
1 1.44633162021636963 -0.687394320964813232 -1 -0 -0
1 1.5058978796005249 -0.719599425792694092 -1 -0 -0
1 1.39458334445953369 -0.706863284111022949 -1 -0 -0
1 0.325809001922607422 -0.551004588603973389 -1 -0 -0
1 0.873667299747467041 -0.624342203140258789 -1 -0 -0
1 1.14414358139038086 -0.651274681091308594 -1 -0 -0
1 0.418769627809524536 -0.56463545560836792 -1 -0 -0
1 1.17537045478820801 -0.689176559448242188 -1 -0 -0
1 2.2981259822845459 -0.806984782218933105 -1 -0 -0
1 2.89642548561096191 -0.866216301918029785 -1 -0 -0
1 3.55954623222351074 -0.945757806301116943 -1 -0 -0
1 0.826809823513031006 -0.611799657344818115 -1 -0 -0
1 3.3357088565826416 -0.92045825719833374 -1 -0 -0
1 0.363683849573135376 -0.577867627143859863 -1 -0 -0
1 0.682469546794891357 -0.586060762405395508 -1 -0 -0
1 1.26061141490936279 -0.672084927558898926 -1 -0 -0
1 2.24454760551452637 -0.799388587474822998 -1 -0 -0
1 3.01554751396179199 -0.879208087921142578 -1 -0 -0
1 0.973874092102050781 -0.65356367826461792 -1 -0 -0
1 1.08713841438293457 -0.674983024597167969 -1 -0 -0
1 0.0822023749351501465 -0.53012394905090332 -1 -0 -0
1 1.97765982151031494 -0.767072618007659912 -1 -0 -0
1 0.475581914186477661 -0.577825248241424561 -1 -0 -0
1 0.590563714504241943 -0.604723989963531494 -1 -0 -0
1 1.77822566032409668 -0.731686294078826904 -1 -0 -0
1 0.637451231479644775 -0.581775844097137451 -1 -0 -0
1 0.764794409275054932 -0.619459152221679688 -1 -0 -0
1 0.231565698981285095 -0.549373030662536621 -1 -0 -0
1 1.91728949546813965 -0.752329528331756592 -1 -0 -0
1 3.25759124755859375 -0.914883732795715332 -1 -0 -0
1 3.73402953147888184 -0.967982351779937744 -1 -0 -0
1 0.515238583087921143 -0.611562728881835938 -1 -0 -0
1 0.271406203508377075 -0.590086221694946289 -1 -0 -0
1 2.67670774459838867 -0.837756216526031494 -1 -0 -0
1 2.57436084747314453 -0.83355945348739624 -1 -0 -0
1 1.69180750846862793 -0.754495084285736084 -1 -0 -0
1 0.303816765546798706 -0.632019758224487305 -1 -0 -0
1 1.75961542129516602 -0.78143996000289917 -1 -0 -0
1 0.79050523042678833 -0.682158350944519043 -1 -0 -0
1 0.548336029052734375 -0.659949958324432373 -1 -0 -0
1 2.52845859527587891 -0.841790914535522461 -1 -0 -0
1 1.42110025882720947 -0.748659491539001465 -1 -0 -0
1 0.151850283145904541 -0.600065529346466064 -1 -0 -0
1 0.037290424108505249 -0.613783001899719238 -1 -0 -0
1 0.352647066116333008 -0.635221719741821289 -1 -0 -0
1 3.40484929084777832 -0.943486988544464111 -1 -0 -0
1 1.21608483791351318 -0.717374324798583984 -1 -0 -0
1 1.54824304580688477 -0.748566865921020508 -1 -0 -0
1 1.01823854446411133 -0.680427074432373047 -1 -0 -0
1 1.59619772434234619 -0.743798792362213135 -1 -0 -0
1 2.06100201606750488 -0.804072380065917969 -1 -0 -0
1 0.220087110996246338 -0.60934138298034668 -1 -0 -0
1 1.83580970764160156 -0.772542357444763184 -1 -0 -0
1 0.459801465272903442 -0.662972807884216309 -1 -0 -0
1 0.928093194961547852 -0.677452623844146729 -1 -0 -0
1 0.639346659183502197 -0.636359512805938721 -1 -0 -0
1 0.696170151233673096 -0.642206013202667236 -1 -0 -0
1 2.17118954658508301 -0.811603367328643799 -1 -0 -0
1 2.39875340461730957 -0.839790463447570801 -1 -0 -0
1 2.45130467414855957 -0.830623865127563477 -1 -0 -0
1 1.32575142383575439 -0.70921701192855835 -1 -0 -0
1 1.93349134922027588 -0.804327487945556641 -1 -0 -0
1 2.82506179809570312 -0.872727155685424805 -1 -0 -0
1 0.095144614577293396 -0.582202553749084473 -1 -0 -0
1 0.859172403812408447 -0.670435130596160889 -1 -0 -0
1 0.417503207921981812 -0.613547623157501221 -1 -0 -0
1 0.974610865116119385 -0.721138179302215576 -1 -0 -0
1 1.37165176868438721 -0.759570121765136719 -1 -0 -0
1 2.72459220886230469 -0.886466741561889648 -1 -0 -0
1 3.04852175712585449 -0.922724485397338867 -1 -0 -0
1 0.189496487379074097 -0.650810420513153076 -1 -0 -0
1 0.82826995849609375 -0.743690729141235352 -1 -0 -0
1 1.12675666809082031 -0.739957809448242188 -1 -0 -0
1 0.57855224609375 -0.694693624973297119 -1 -0 -0
1 0.920269608497619629 -0.747683107852935791 -1 -0 -0
1 0.741025149822235107 -0.700465142726898193 -1 -0 -0
1 0.497278720140457153 -0.707534730434417725 -1 -0 -0
1 3.46002721786499023 -0.949934422969818115 -1 -0 -0
1 1.50237607955932617 -0.779884755611419678 -1 -0 -0
1 0.27827298641204834 -0.680189728736877441 -1 -0 -0
1 1.62096452713012695 -0.791572391986846924 -1 -0 -0
1 0.643383562564849854 -0.691315233707427979 -1 -0 -0
1 2.10235476493835449 -0.826196491718292236 -1 -0 -0
1 3.10867810249328613 -0.919078528881072998 -1 -0 -0
1 0.0279846657067537308 -0.673221588134765625 -1 -0 -0
1 1.68184292316436768 -0.80107194185256958 -1 -0 -0
1 0.219984233379364014 -0.693088948726654053 -1 -0 -0
1 0.415428072214126587 -0.692561507225036621 -1 -0 -0
1 0.089271053671836853 -0.685314476490020752 -1 -0 -0
1 2.33380675315856934 -0.84664076566696167 -1 -0 -0
1 1.04572296142578125 -0.723178446292877197 -1 -0 -0
1 2.8632204532623291 -0.907797098159790039 -1 -0 -0
1 1.79644358158111572 -0.817387998104095459 -1 -0 -0
1 1.31387412548065186 -0.764196097850799561 -1 -0 -0
1 1.72576630115509033 -0.832767963409423828 -1 -0 -0
1 0.455621838569641113 -0.72807389497756958 -1 -0 -0
1 2.61436939239501953 -0.907195210456848145 -1 -0 -0
1 2.44745659828186035 -0.879771649837493896 -1 -0 -0
1 2.93552780151367188 -0.921377897262573242 -1 -0 -0
1 1.28719627857208252 -0.813058733940124512 -1 -0 -0
1 1.16332757472991943 -0.791743159294128418 -1 -0 -0
1 1.63510513305664062 -0.84098893404006958 -1 -0 -0
1 1.07562923431396484 -0.795159399509429932 -1 -0 -0
1 0.97363579273223877 -0.777887582778930664 -1 -0 -0
1 0.622926056385040283 -0.737540185451507568 -1 -0 -0
1 2.2173163890838623 -0.872634053230285645 -1 -0 -0
1 0.0343963131308555603 -0.738327741622924805 -1 -0 -0
1 0.764441967010498047 -0.764121115207672119 -1 -0 -0
1 0.677092194557189941 -0.742858231067657471 -1 -0 -0
1 0.923432290554046631 -0.80388331413269043 -1 -0 -0
1 0.411321371793746948 -0.748712122440338135 -1 -0 -0
1 0.110007375478744507 -0.739111840724945068 -1 -0 -0
1 0.306070864200592041 -0.724451601505279541 -1 -0 -0
1 1.23778176307678223 -0.823918163776397705 -1 -0 -0
1 0.554054558277130127 -0.757777810096740723 -1 -0 -0
1 1.01782143115997314 -0.81300818920135498 -1 -0 -0
1 1.95264816284179688 -0.86177361011505127 -1 -0 -0
1 1.99790537357330322 -0.855861186981201172 -1 -0 -0
1 0.360187947750091553 -0.727055013179779053 -1 -0 -0
1 1.89704227447509766 -0.847714662551879883 -1 -0 -0
1 2.05609273910522461 -0.854968488216400146 -1 -0 -0
1 0.247257143259048462 -0.734435558319091797 -1 -0 -0
1 2.55681109428405762 -0.895931124687194824 -1 -0 -0
1 0.877202808856964111 -0.777714133262634277 -1 -0 -0
1 0.181028962135314941 -0.726304352283477783 -1 -0 -0
1 1.3775019645690918 -0.824221193790435791 -1 -0 -0
1 2.17047476768493652 -0.867852568626403809 -1 -0 -0
1 1.58312678337097168 -0.832239985466003418 -1 -0 -0
1 1.33287322521209717 -0.862381160259246826 -1 -0 -0
1 2.49432659149169922 -0.906167328357696533 -1 -0 -0
1 0.367505192756652832 -0.809549152851104736 -1 -0 -0
1 1.38242363929748535 -0.874225318431854248 -1 -0 -0
1 0.661923348903656006 -0.828809559345245361 -1 -0 -0
1 2.04312324523925781 -0.906577825546264648 -1 -0 -0
1 0.738843679428100586 -0.817788779735565186 -1 -0 -0
1 0.847558736801147461 -0.839468419551849365 -1 -0 -0
1 3.2562401294708252 -0.961190223693847656 -1 -0 -0
1 0.116948217153549194 -0.791776537895202637 -1 -0 -0
1 0.574584901332855225 -0.811686694622039795 -1 -0 -0
1 1.68052804470062256 -0.879710614681243896 -1 -0 -0
1 2.26292300224304199 -0.904869794845581055 -1 -0 -0
1 0.286542266607284546 -0.781526505947113037 -1 -0 -0
1 1.15942442417144775 -0.8504638671875 -1 -0 -0
1 0.0257450137287378311 -0.792105197906494141 -1 -0 -0
1 0.792914390563964844 -0.810219407081604004 -1 -0 -0
1 0.475138634443283081 -0.791449546813964844 -1 -0 -0
1 0.181032583117485046 -0.819016754627227783 -1 -0 -0
1 2.33798813819885254 -0.919948577880859375 -1 -0 -0
1 0.615925133228302002 -0.792667865753173828 -1 -0 -0
1 0.949157297611236572 -0.847594320774078369 -1 -0 -0
1 1.50437986850738525 -0.869620680809020996 -1 -0 -0
1 0.164208248257637024 -0.769315242767333984 -1 -0 -0
1 1.78051614761352539 -0.872393429279327393 -1 -0 -0
1 2.98127269744873047 -0.938431739807128906 -1 -0 -0
1 1.10861027240753174 -0.835274755954742432 -1 -0 -0
1 1.85203397274017334 -0.867615401744842529 -1 -0 -0
1 0.230023220181465149 -0.808929741382598877 -1 -0 -0
1 1.4392693042755127 -0.85763096809387207 -1 -0 -0
1 1.22989189624786377 -0.890324294567108154 -1 -0 -0
1 0.383060634136199951 -0.882461309432983398 -1 -0 -0
1 1.71772575378417969 -0.920825600624084473 -1 -0 -0
1 3.16753840446472168 -0.963369488716125488 -1 -0 -0
1 1.08075666427612305 -0.877518057823181152 -1 -0 -0
1 0.628295660018920898 -0.862312793731689453 -1 -0 -0
1 0.0751993730664253235 -0.837026298046112061 -1 -0 -0
1 0.274181395769119263 -0.876862764358520508 -1 -0 -0
1 2.14901995658874512 -0.929779648780822754 -1 -0 -0
1 0.686316013336181641 -0.87868577241897583 -1 -0 -0
1 0.744503200054168701 -0.868483185768127441 -1 -0 -0
1 1.47312796115875244 -0.918858230113983154 -1 -0 -0
1 0.426377147436141968 -0.850605368614196777 -1 -0 -0
1 2.38756299018859863 -0.929812610149383545 -1 -0 -0
1 0.919390857219696045 -0.882447123527526855 -1 -0 -0
1 2.71912574768066406 -0.953688263893127441 -1 -0 -0
1 0.46753615140914917 -0.877303957939147949 -1 -0 -0
1 0.117097221314907074 -0.877252638339996338 -1 -0 -0
1 1.00979030132293701 -0.892068803310394287 -1 -0 -0
1 0.524608731269836426 -0.843416392803192139 -1 -0 -0
1 2.81518125534057617 -0.944760918617248535 -1 -0 -0
1 1.28660881519317627 -0.886879205703735352 -1 -0 -0
1 2.10229992866516113 -0.923521101474761963 -1 -0 -0
1 1.56380999088287354 -0.891069591045379639 -1 -0 -0
1 0.312514811754226685 -0.848315954208374023 -1 -0 -0
1 1.6042327880859375 -0.916022300720214844 -1 -0 -0
1 0.0269289780408143997 -0.859058558940887451 -1 -0 -0
1 2.65650463104248047 -0.940323352813720703 -1 -0 -0
1 1.95751988887786865 -0.922512471675872803 -1 -0 -0
1 0.808065414428710938 -0.864830434322357178 -1 -0 -0
1 0.56134033203125 -0.88738703727722168 -1 -0 -0
1 0.784286260604858398 -0.986447036266326904 -1 -0 -0
1 1.54368424415588379 -0.990755379199981689 -1 -0 -0
1 0.894293785095214844 -0.985091686248779297 -1 -0 -0
1 0.570149004459381104 -0.996145963668823242 -1 -0 -0
1 2.29695653915405273 -0.975667417049407959 -1 -0 -0
1 1.02684760093688965 -0.985391199588775635 -1 -0 -0
1 2.92820835113525391 -0.987790048122406006 -1 -0 -0
1 0.40624535083770752 -0.954864561557769775 -1 -0 -0
1 3.59353947639465332 -0.999605238437652588 -1 -0 -0
1 0.844588518142700195 -0.996388018131256104 -1 -0 -0
1 0.2003592848777771 -0.951109111309051514 -1 -0 -0
1 2.13309454917907715 -0.982175707817077637 -1 -0 -0
1 1.93690371513366699 -0.990884482860565186 -1 -0 -0
1 0.724005699157714844 -0.957588613033294678 -1 -0 -0
1 1.35553216934204102 -0.994081497192382812 -1 -0 -0
1 1.7895665168762207 -0.999191999435424805 -1 -0 -0
1 2.65177011489868164 -0.997970044612884521 -1 -0 -0
1 0.311406165361404419 -0.959866225719451904 -1 -0 -0
1 1.45334136486053467 -0.972030162811279297 -1 -0 -0
1 1.18551397323608398 -0.978875935077667236 -1 -0 -0
1 1.11914479732513428 -0.973326981067657471 -1 -0 -0
1 0.487992465496063232 -0.987334370613098145 -1 -0 -0
1 3.29784226417541504 -0.994408488273620605 -1 -0 -0
1 1.59187150001525879 -0.987757563591003418 -1 -0 -0
1 3.22278189659118652 -0.579052209854125977 -1 -0 0
1 2.05800056457519531 -0.399271070957183838 -1 -0 0
1 2.14727640151977539 0.444649070501327515 -1 -0 0
1 2.82228541374206543 -0.207202032208442688 -1 -0 0
1 3.23143768310546875 0.378584414720535278 -1 -0 0
1 2.43242287635803223 -0.492187023162841797 -1 -0 0
1 2.11547994613647461 -0.039396774023771286 -1 -0 0
1 3.06335353851318359 -0.624735355377197266 -1 -0 0
1 2.00557923316955566 -0.2263592928647995 -1 -0 0
1 1.50597929954528809 0.182592347264289856 -1 -0 0
1 3.78354120254516602 -0.164963766932487488 -1 -0 0
1 3.61763572692871094 0.632618248462677002 -1 -0 0
1 3.34418272972106934 -0.208082452416419983 -1 -0 0
1 2.30249691009521484 0.123761497437953949 -1 -0 0
1 2.91637182235717773 -0.309154093265533447 -1 -0 0
1 2.10874533653259277 0.243997246026992798 -1 -0 0
1 1.24660003185272217 -0.243444383144378662 -1 -0 0
1 1.05162966251373291 0.229902997612953186 -1 -0 0
1 1.54928886890411377 0.199007287621498108 -1 -0 0
1 3.90754342079162598 -0.284861534833908081 -1 -0 0
1 3.72437906265258789 -0.215957328677177429 -1 -0 0
1 1.48323178291320801 -0.227215006947517395 -1 -0 0
1 2.4399113655090332 0.112668760120868683 -1 -0 0
1 3.92079305648803711 0.175033465027809143 -1 -0 0
1 2.70849490165710449 0.22391057014465332 -1 -0 0
1 3.32414007186889648 0.561888396739959717 -1 -0 0
1 3.60804557800292969 -0.568405270576477051 -1 -0 0
1 1.42584764957427979 -0.294658899307250977 -1 -0 0
1 2.28309440612792969 0.472965449094772339 -1 -0 0
1 2.28231287002563477 -0.349794328212738037 -1 -0 0
1 3.79021286964416504 -0.274202436208724976 -1 -0 0
1 1.70832788944244385 0.00475695542991161346 -1 -0 0
1 3.22940587997436523 0.0225729364901781082 -1 -0 0
1 1.53172111511230469 0.0149995302781462669 -1 -0 0
1 1.85580766201019287 -0.338169723749160767 -1 -0 0
1 3.71529364585876465 0.327034294605255127 -1 -0 0
1 3.0833134651184082 -0.176307812333106995 -1 -0 0
1 3.07565164566040039 0.455223530530929565 -1 -0 0
1 3.40013980865478516 -0.0350043810904026031 -1 -0 0
1 3.39243745803833008 -0.624017477035522461 -1 -0 0
1 2.9619896411895752 -0.25975799560546875 -1 -0 0
1 2.9029383659362793 0.236637189984321594 -1 -0 0
1 2.09365510940551758 0.334330946207046509 -1 -0 0
1 3.62542891502380371 0.446435511112213135 -1 -0 0
1 0.617757439613342285 0.120296858251094818 -1 -0 0
1 1.34704494476318359 -0.148466810584068298 -1 -0 0
1 3.88808941841125488 -0.617568314075469971 -1 -0 0
1 2.95998907089233398 0.0670774579048156738 -1 -0 0
1 2.53211379051208496 -0.304725497961044312 -1 -0 0
1 2.55732464790344238 0.145028606057167053 -1 -0 0
1 2.01224017143249512 0.434928208589553833 -1 -0 0
1 3.57033514976501465 -0.163838669657707214 -1 -0 0
1 2.09031558036804199 0.506591677665710449 -1 -0 0
1 1.89962184429168701 -0.299520879983901978 -1 -0 0
1 2.97720241546630859 -0.0330883748829364777 -1 -0 0
1 2.41050219535827637 -0.335374146699905396 -1 -0 0
1 3.51183056831359863 0.843500912189483643 -1 -0 0
1 2.73188138008117676 0.0468001216650009155 -1 -0 0
1 2.1338191032409668 0.298601001501083374 -1 -0 0
1 3.45750021934509277 0.217421680688858032 -1 -0 0
1 3.48492217063903809 -0.787328660488128662 -1 -0 0
1 0.938569188117980957 -0.143975153565406799 -1 -0 0
1 2.21759581565856934 0.506459057331085205 -1 -0 0
1 1.12531411647796631 0.0894335508346557617 -1 -0 0
1 1.77086126804351807 -0.101427927613258362 -1 -0 0
1 3.89257240295410156 -0.160409107804298401 -1 -0 0
1 2.23831081390380859 -0.228994935750961304 -1 -0 0
1 2.0450141429901123 -0.204753100872039795 -1 -0 0
1 2.48434734344482422 0.209963366389274597 -1 -0 0
1 2.20932245254516602 0.280335664749145508 -1 -0 0
1 0.634561359882354736 0.0165085643529891968 -1 -0 0
1 3.22748279571533203 -0.709738433361053467 -1 -0 0
1 2.76396846771240234 -0.416004925966262817 -1 -0 0
1 1.20957303047180176 0.175844952464103699 -1 -0 0
1 3.94529509544372559 -0.789194047451019287 -1 -0 0
1 3.0127866268157959 -0.706512689590454102 -1 -0 0
1 3.80150747299194336 0.384709626436233521 -1 -0 0
1 2.0990288257598877 -0.204237133264541626 -1 -0 0
1 3.53128409385681152 0.317892730236053467 -1 -0 0
1 3.99528980255126953 0.485206574201583862 -1 -0 0
1 2.5411384105682373 0.374301910400390625 -1 -0 0
1 2.44038581848144531 -0.395713001489639282 -1 -0 0
1 1.95599710941314697 0.460041731595993042 -1 -0 0
1 2.6360926628112793 -0.226710349321365356 -1 -0 0
1 3.32221865653991699 0.324314266443252563 -1 -0 0
1 1.80908477306365967 0.326982766389846802 -1 -0 0
1 3.95687532424926758 -0.716352343559265137 -1 -0 0
1 3.88677811622619629 -0.0735569670796394348 -1 -0 0
1 1.76034760475158691 -0.429857701063156128 -1 -0 0
1 2.33028268814086914 -0.218828856945037842 -1 -0 0
1 2.59640741348266602 -0.381387293338775635 -1 -0 0
1 2.06214237213134766 0.213918983936309814 -1 -0 0
1 2.1149439811706543 -0.421118497848510742 -1 -0 0
1 3.88584136962890625 0.229851633310317993 -1 -0 0
1 1.17999088764190674 -0.0382898151874542236 -1 -0 0
1 2.45537066459655762 0.165584221482276917 -1 -0 0
1 2.40659022331237793 -0.222478121519088745 -1 -0 0
1 2.30548262596130371 0.21046137809753418 -1 -0 0
1 2.29269814491271973 0.331705152988433838 -1 -0 0
1 1.68844377994537354 -0.0825079604983329773 -1 -0 0
1 2.24020648002624512 0.360449373722076416 -1 -0 0
1 0.559761881828308105 0.124462001025676727 -1 -0 0
1 3.31334280967712402 0.691401124000549316 -1 -0 0
1 3.45518350601196289 0.0298097524791955948 -1 -0 0
1 2.3640143871307373 0.227215275168418884 -1 -0 0
1 1.74289321899414062 0.205712512135505676 -1 -0 0
1 2.68445420265197754 -0.520554304122924805 -1 -0 0
1 3.84800958633422852 -0.952777683734893799 -1 -0 0
1 3.78246808052062988 -0.841233789920806885 -1 -0 0
1 3.90322256088256836 -0.335967898368835449 -1 -0 0
1 1.02299726009368896 -0.154170289635658264 -1 -0 0
1 3.81161785125732422 0.758248090744018555 -1 -0 0
1 3.17825508117675781 0.70539933443069458 -1 -0 0
1 2.71012783050537109 -0.187973514199256897 -1 -0 0
1 1.35676157474517822 0.0302810445427894592 -1 -0 0
1 3.76237630844116211 0.336393773555755615 -1 -0 0
1 3.32438373565673828 -0.305254429578781128 -1 -0 0
1 1.76172637939453125 0.338289082050323486 -1 -0 0
1 2.77926230430603027 0.512275278568267822 -1 -0 0
1 1.25147092342376709 -0.306155085563659668 -1 -0 0
1 2.50480341911315918 -0.152588322758674622 -1 -0 0
1 3.30878877639770508 0.0953911542892456055 -1 -0 0
1 3.39392638206481934 -0.186613678932189941 -1 -0 0
1 2.85912942886352539 0.519825100898742676 -1 -0 0
1 2.3490288257598877 -0.123289458453655243 -1 -0 0
1 2.14827966690063477 -0.261486411094665527 -1 -0 0
1 2.11253690719604492 0.0131108062341809273 -1 -0 0
1 1.2338484525680542 0.09270525723695755 -1 -0 0
1 3.8153383731842041 0.689295351505279541 -1 -0 0
1 0.485119670629501343 -0.0632788985967636108 -1 -0 0
1 3.70797467231750488 -0.145299077033996582 -1 -0 0
1 2.43485546112060547 0.24008592963218689 -1 -0 0
1 2.61291933059692383 0.16460593044757843 -1 -0 0
1 3.23658275604248047 0.753727138042449951 -1 -0 0
1 2.59430909156799316 -0.0719806328415870667 -1 -0 0
1 3.17911934852600098 -0.253201276063919067 -1 -0 0
1 2.76118874549865723 0.164628684520721436 -1 -0 0
1 3.17020988464355469 0.764119207859039307 -1 -0 0
1 3.17783522605895996 0.609175622463226318 -1 -0 0
1 2.64923429489135742 -0.343418985605239868 -1 -0 0
1 3.99656462669372559 -0.172551631927490234 -1 -0 0
1 2.39615583419799805 -0.437123239040374756 -1 -0 0
1 3.71415305137634277 0.0289560016244649887 -1 -0 0
1 2.70209288597106934 -0.670607089996337891 -1 -0 0
1 3.29287123680114746 -0.0536392219364643097 -1 -0 0
1 1.1096038818359375 0.214124321937561035 -1 -0 0
1 0.964123427867889404 0.0692267045378684998 -1 -0 0
1 1.39382374286651611 0.137602135539054871 -1 -0 0
1 3.51138734817504883 -0.353040874004364014 -1 -0 0
1 1.57366108894348145 0.0387842021882534027 -1 -0 0
1 2.90219759941101074 -0.519546926021575928 -1 -0 0
1 2.34923124313354492 0.108493603765964508 -1 -0 0
1 3.66194295883178711 0.558953583240509033 -1 -0 0
1 3.18889284133911133 -0.173318207263946533 -1 -0 0
1 3.04327201843261719 0.286000192165374756 -1 -0 0
1 2.93563604354858398 -0.39184194803237915 -1 -0 0
1 2.26262378692626953 0.224037528038024902 -1 -0 0
1 2.85575723648071289 0.209595635533332825 -1 -0 0
1 1.21595728397369385 -0.161527752876281738 -1 -0 0
1 3.61121559143066406 0.00343118025921285152 -1 -0 0
1 3.79248881340026855 -0.0973463207483291626 -1 -0 0
1 3.92422986030578613 0.832845330238342285 -1 -0 0
1 1.81348812580108643 -0.165716588497161865 -1 -0 0
1 1.67614161968231201 0.122881948947906494 -1 -0 0
1 2.14541721343994141 0.203796938061714172 -1 -0 0
1 3.40787816047668457 0.117471702396869659 -1 -0 0
1 3.51570963859558105 -0.836421012878417969 -1 -0 0
1 3.68097352981567383 -0.103852108120918274 -1 -0 0
1 3.0179893970489502 -0.548561334609985352 -1 -0 0
1 2.0570979118347168 -0.288743555545806885 -1 -0 0
1 2.63354897499084473 -0.096967063844203949 -1 -0 0
1 3.39659738540649414 -0.320737391710281372 -1 -0 0
1 2.4624476432800293 0.573416531085968018 -1 -0 0
1 3.71367692947387695 -0.576254665851593018 -1 -0 0
1 2.7079014778137207 0.138418391346931458 -1 -0 0
1 3.66972136497497559 0.619512557983398438 -1 -0 0
1 2.71282458305358887 0.485352903604507446 -1 -0 0
1 3.73277640342712402 0.081820070743560791 -1 -0 0
1 2.00331473350524902 0.246108129620552063 -1 -0 0
1 1.36509072780609131 -0.0448142997920513153 -1 -0 0
1 3.49854326248168945 0.263582587242126465 -1 -0 0
1 1.45466434955596924 0.152028575539588928 -1 -0 0
1 3.09381461143493652 -0.415881812572479248 -1 -0 0
1 3.15236687660217285 0.394743502140045166 -1 -0 0
1 3.54322123527526855 -0.208158314228057861 -1 -0 0
1 1.79528844356536865 -0.298580557107925415 -1 -0 0
1 3.76633739471435547 0.656167864799499512 -1 -0 0
1 3.83821511268615723 0.416224896907806396 -1 -0 0
1 3.78651237487792969 -0.695939600467681885 -1 -0 0
1 2.47255277633666992 0.0279085077345371246 -1 -0 0
1 3.8887481689453125 0.926799416542053223 -1 -0 0
1 3.94471096992492676 -0.255538493394851685 -1 -0 0
1 3.86533641815185547 0.855032265186309814 -1 -0 0
1 3.33660125732421875 -0.0214243698865175247 -1 -0 0
1 3.89466285705566406 0.0202261228114366531 -1 -0 0
1 3.71684384346008301 -0.642172753810882568 -1 -0 0
1 1.30174839496612549 0.0157743208110332489 -1 -0 0
1 3.26382303237915039 0.488974064588546753 -1 -0 0
1 3.08884954452514648 0.402731239795684814 -1 -0 0
1 1.82495605945587158 -0.387676358222961426 -1 -0 0
1 1.41638100147247314 -0.118318766355514526 -1 -0 0
1 2.1064302921295166 -0.485345900058746338 -1 -0 0
1 3.39232468605041504 0.630385756492614746 -1 -0 0
1 3.38330698013305664 0.379924952983856201 -1 -0 0
1 3.89470624923706055 0.352802902460098267 -1 -0 0
1 3.08785676956176758 -0.51868206262588501 -1 -0 0
1 2.90376472473144531 0.55117267370223999 -1 -0 0
1 3.11532974243164062 0.479720473289489746 -1 -0 0
1 1.18309938907623291 0.0828265845775604248 -1 -0 0
1 1.29993557929992676 -0.310709238052368164 -1 -0 0
1 1.99947249889373779 -0.304061323404312134 -1 -0 0
1 3.52977204322814941 0.678534209728240967 -1 -0 0
1 1.63920688629150391 -0.20287950336933136 -1 -0 0
1 1.84453904628753662 0.284905970096588135 -1 -0 0
1 2.69291853904724121 0.533730685710906982 -1 -0 0
1 3.20830249786376953 0.245890349149703979 -1 -0 0
1 2.26531124114990234 -0.297143042087554932 -1 -0 0
1 1.91552042961120605 -0.453652054071426392 -1 -0 0
1 2.05878973007202148 -0.140123099088668823 -1 -0 0
1 3.20970964431762695 0.493424504995346069 -1 -0 0
1 3.08482742309570312 0.164723575115203857 -1 -0 0
1 2.59530472755432129 -0.304535776376724243 -1 -0 0
1 3.95201754570007324 0.434502750635147095 -1 -0 0
1 3.4262382984161377 0.4171181321144104 -1 -0 0
1 0.898364782333374023 0.144641071557998657 -1 -0 0
1 3.84597682952880859 -0.645818948745727539 -1 -0 0
1 3.16922092437744141 0.323429018259048462 -1 -0 0
1 3.99116945266723633 -0.275990813970565796 -1 -0 0
1 0.783763527870178223 0.0969388112425804138 -1 -0 0
1 3.64005160331726074 0.32552570104598999 -1 -0 0
1 2.29606509208679199 -0.148186743259429932 -1 -0 0
1 1.71929454803466797 0.158302217721939087 -1 -0 0
1 1.49753391742706299 0.0620275363326072693 -1 -0 0
1 2.77707600593566895 -0.322338491678237915 -1 -0 0
1 3.26939821243286133 -0.316841810941696167 -1 -0 0
1 1.31792795658111572 0.211345583200454712 -1 -0 0
1 1.4980541467666626 -0.294412165880203247 -1 -0 0
1 3.55515742301940918 -0.801641464233398438 -1 -0 0
1 1.91000688076019287 0.251803874969482422 -1 -0 0
1 3.58879852294921875 0.737536132335662842 -1 -0 0
1 3.94913148880004883 0.371834486722946167 -1 -0 0
1 3.80963325500488281 0.00899965688586235046 -1 -0 0
1 1.46402323246002197 -0.0789337232708930969 -1 -0 0
1 2.91227126121520996 0.372765094041824341 -1 -0 0
1 3.00131487846374512 0.654658675193786621 -1 -0 0
1 2.68784284591674805 -0.242472857236862183 -1 -0 0
1 1.95689892768859863 -0.413289546966552734 -1 -0 0
1 3.86286234855651855 -0.758696556091308594 -1 -0 0
1 3.57033205032348633 0.22212664783000946 -1 -0 0
1 3.83476471900939941 0.235540241003036499 -1 -0 0
1 3.85997724533081055 -0.71228557825088501 -1 -0 0
1 3.25766420364379883 0.229563191533088684 -1 -0 0
1 3.94868969917297363 -0.170768067240715027 -1 -0 0
1 1.14861738681793213 0.253275454044342041 -1 -0 0
1 2.54675173759460449 -0.0271654091775417328 -1 -0 0
1 3.32553553581237793 0.165467932820320129 -1 -0 0
1 0.470675379037857056 -0.0181537419557571411 -1 -0 0
1 1.04258275032043457 0.125579565763473511 -1 -0 0
1 3.02346110343933105 0.510479271411895752 -1 -0 0
1 3.75327062606811523 0.283799201250076294 -1 -0 0
1 3.69565439224243164 -0.480909466743469238 -1 -0 0
1 3.32427597045898438 0.504838466644287109 -1 -0 0
1 2.26225757598876953 -0.116680406033992767 -1 -0 0
1 2.4404752254486084 -0.125739246606826782 -1 -0 0
1 1.51310300827026367 -0.103939756751060486 -1 -0 0
1 3.51961588859558105 0.532838642597198486 -1 -0 0
1 2.40143728256225586 0.150069072842597961 -1 -0 0
1 1.52556121349334717 -0.349394738674163818 -1 -0 0
1 3.00348567962646484 0.556420624256134033 -1 -0 0
1 3.78688907623291016 0.196051284670829773 -1 -0 0
1 2.72600483894348145 0.572617948055267334 -1 -0 0
1 2.61310172080993652 -0.501493334770202637 -1 -0 0
1 0.496630996465682983 0.0212987139821052551 -1 -0 0
1 1.57328629493713379 -0.260433346033096313 -1 -0 0
1 3.93926906585693359 -0.0127620697021484375 -1 -0 0
1 2.54776835441589355 0.0858084186911582947 -1 -0 0
1 2.53820252418518066 0.215632170438766479 -1 -0 0
1 3.29595947265625 0.644876182079315186 -1 -0 0
1 1.74951553344726562 -0.0209368467330932617 -1 -0 0
1 3.19321298599243164 -0.679680526256561279 -1 -0 0
1 3.02808260917663574 0.459711641073226929 -1 -0 0
1 3.08893656730651855 -0.090664595365524292 -1 -0 0
1 2.77298307418823242 -0.0447670817375183105 -1 -0 0
1 1.82054376602172852 -0.00502735981717705727 -1 -0 0
1 2.02824997901916504 0.286987572908401489 -1 -0 0
1 2.4757685661315918 -0.0636221393942832947 -1 -0 0
1 1.91933679580688477 -0.242241784930229187 -1 -0 0
1 3.34371137619018555 -0.416993081569671631 -1 -0 0
1 3.93027019500732422 -0.550598204135894775 -1 -0 0
1 3.46555972099304199 -0.229732394218444824 -1 -0 0
1 3.06250262260437012 0.123550288379192352 -1 -0 0
1 2.88770723342895508 -0.613067626953125 -1 -0 0
1 3.59305143356323242 0.85687023401260376 -1 -0 0
1 2.83760714530944824 0.682509124279022217 -1 -0 0
1 2.77167081832885742 -0.465383380651473999 -1 -0 0
1 2.31406569480895996 -0.430784612894058228 -1 -0 0
1 3.99918866157531738 0.796594560146331787 -1 -0 0
1 1.83394396305084229 -0.24998939037322998 -1 -0 0
1 0.86737370491027832 -0.0453130677342414856 -1 -0 0
1 2.81349992752075195 0.416082203388214111 -1 -0 0
1 0.308321624994277954 0.05629691481590271 -1 -0 0
1 3.94261693954467773 -0.875002205371856689 -1 -0 0
1 2.34207296371459961 0.155342012643814087 -1 -0 0
1 3.59658169746398926 0.530494928359985352 -1 -0 0
1 3.09473204612731934 0.260219037532806396 -1 -0 0
1 3.01953268051147461 -0.268687605857849121 -1 -0 0
1 0.702814161777496338 -0.128040745854377747 -1 -0 0
1 3.7300410270690918 0.562988996505737305 -1 -0 0
1 3.24277329444885254 -0.0481177195906639099 -1 -0 0
1 3.19058537483215332 -0.0716929733753204346 -1 -0 0
1 1.87164151668548584 -0.419756144285202026 -1 -0 0
1 0.808178544044494629 0.179095566272735596 -1 -0 0
1 3.3259589672088623 -0.77487868070602417 -1 -0 0
1 3.22111153602600098 -0.297781944274902344 -1 -0 0
1 3.58886575698852539 0.134666785597801208 -1 -0 0
1 3.96826171875 -0.123504206538200378 -1 -0 0
1 3.11837601661682129 0.304425895214080811 -1 -0 0
1 3.74700689315795898 0.785598278045654297 -1 -0 0
1 2.83469343185424805 0.358398526906967163 -1 -0 0
1 0.675045013427734375 -0.0734429657459259033 -1 -0 0
1 3.08953166007995605 0.666818559169769287 -1 -0 0
1 0.452628493309020996 0.050586652010679245 -1 -0 0
1 3.36041498184204102 -0.660097897052764893 -1 -0 0
1 1.074424147605896 -0.139302432537078857 -1 -0 0
1 3.92906618118286133 0.289296567440032959 -1 -0 0
1 1.29167473316192627 0.318313956260681152 -1 -0 0
1 3.41900444030761719 -0.47995421290397644 -1 -0 0
1 1.45184040069580078 0.0741543695330619812 -1 -0 0
1 1.62704789638519287 -0.403706789016723633 -1 -0 0
1 2.57033514976501465 0.436269164085388184 -1 -0 0
1 3.37264418601989746 -0.268128514289855957 -1 -0 0
1 2.01831412315368652 -0.049071047455072403 -1 -0 0
1 3.51304936408996582 -0.650535643100738525 -1 -0 0
1 2.64819002151489258 -0.166861638426780701 -1 -0 0
1 2.25209975242614746 -0.507857203483581543 -1 -0 0
1 3.04578280448913574 -0.37493172287940979 -1 -0 0
1 0.844211935997009277 -0.0910657048225402832 -1 -0 0
1 3.17963457107543945 0.0524146072566509247 -1 -0 0
1 2.66227245330810547 0.493358105421066284 -1 -0 0
1 3.95040297508239746 0.659120440483093262 -1 -0 0
1 3.65084958076477051 -0.541170299053192139 -1 -0 0
1 0.363498806953430176 0.011275213211774826 -1 -0 0
1 0.698749184608459473 0.0098216719925403595 -1 -0 0
1 3.84726238250732422 -0.893517553806304932 -1 -0 0
1 1.96461236476898193 -0.0746231824159622192 -1 -0 0
1 2.99174976348876953 0.26047930121421814 -1 -0 0
1 3.67032623291015625 0.188436061143875122 -1 -0 0
1 2.59582400321960449 0.378459572792053223 -1 -0 0
1 2.7974085807800293 -0.598613440990447998 -1 -0 0
1 3.26711583137512207 -0.176138326525688171 -1 -0 0
1 1.39655780792236328 0.252708375453948975 -1 -0 0
1 2.47887444496154785 0.435485601425170898 -1 -0 0
1 3.95911622047424316 0.557830870151519775 -1 -0 0
1 3.48661017417907715 -0.0538900084793567657 -1 -0 0
1 2.96980023384094238 0.374177664518356323 -1 -0 0
1 2.8506159782409668 -0.530593395233154297 -1 -0 0
1 3.64626502990722656 0.840932130813598633 -1 -0 0
1 2.94762825965881348 -0.634781062602996826 -1 -0 0
1 3.24295139312744141 0.570133805274963379 -1 -0 0
1 3.82411384582519531 -0.364924639463424683 -1 -0 0
1 1.18231260776519775 -0.258022904396057129 -1 -0 0
1 0.740372180938720703 -0.02113337442278862 -1 -0 0
1 1.30103135108947754 -0.0399654172360897064 -1 -0 0
1 1.4052051305770874 -0.00161122751887887716 -1 -0 0
1 2.53618288040161133 0.521269500255584717 -1 -0 0
1 3.25690841674804688 0.104436509311199188 -1 -0 0
1 1.17710995674133301 0.290468364953994751 -1 -0 0
1 0.886161983013153076 0.0429692529141902924 -1 -0 0
1 2.15854191780090332 -0.308236271142959595 -1 -0 0
1 2.42598676681518555 0.332038283348083496 -1 -0 0
1 2.41546487808227539 -0.16967397928237915 -1 -0 0
1 2.92799162864685059 0.107851818203926086 -1 -0 0
1 1.96979451179504395 0.324230223894119263 -1 -0 0
1 2.86908435821533203 -0.48301994800567627 -1 -0 0
1 1.09041869640350342 -0.0928495526313781738 -1 -0 0
1 3.54076743125915527 -0.27895653247833252 -1 -0 0
1 3.14297842979431152 0.521633565425872803 -1 -0 0
1 1.25568568706512451 0.15031006932258606 -1 -0 0
1 1.59570908546447754 0.327978938817977905 -1 -0 0
1 2.72106099128723145 -0.59669792652130127 -1 -0 0
1 3.9949190616607666 0.844563663005828857 -1 -0 0
1 2.80021810531616211 0.321899622678756714 -1 -0 0
1 2.35023808479309082 -0.337226450443267822 -1 -0 0
1 3.38443660736083984 0.496772617101669312 -1 -0 0
1 3.03534841537475586 -0.186984509229660034 -1 -0 0
1 2.5618126392364502 -0.268080860376358032 -1 -0 0
1 3.50561237335205078 0.465177714824676514 -1 -0 0
1 1.59427416324615479 -0.35279807448387146 -1 -0 0
1 1.98601126670837402 -0.455642670392990112 -1 -0 0
1 3.16937780380249023 0.0035028515849262476 -1 -0 0
1 2.81708025932312012 0.0810672715306282043 -1 -0 0
1 1.92813169956207275 0.056471705436706543 -1 -0 0
1 3.42285037040710449 -0.663198769092559814 -1 -0 0
1 2.61084985733032227 0.607871711254119873 -1 -0 0
1 3.78627133369445801 -0.462271571159362793 -1 -0 0
1 2.19612836837768555 -0.504302680492401123 -1 -0 0
1 1.20481395721435547 0.230224430561065674 -1 -0 0
1 0.909996867179870605 -0.0626640766859054565 -1 -0 0
1 1.86133456230163574 0.439420938491821289 -1 -0 0
1 3.55531406402587891 0.636990904808044434 -1 -0 0
1 1.93152499198913574 -0.107399754226207733 -1 -0 0
1 2.5236055850982666 -0.58451765775680542 -1 -0 0
1 2.59499025344848633 0.48454776406288147 -1 -0 0
1 2.82414913177490234 0.582197070121765137 -1 -0 0
1 3.6184532642364502 0.223782196640968323 -1 -0 0
1 3.37828540802001953 0.679031431674957275 -1 -0 0
1 3.63552355766296387 -0.854100883007049561 -1 -0 0
1 1.86439394950866699 0.0738682299852371216 -1 -0 0
1 3.88534116744995117 0.80534440279006958 -1 -0 0
1 3.34828400611877441 0.763236165046691895 -1 -0 0
1 3.37842226028442383 0.445774614810943604 -1 -0 0
1 1.95911216735839844 -0.342533469200134277 -1 -0 0
1 0.250771582126617432 0.0542216859757900238 -1 -0 0
1 2.57218456268310547 0.305084228515625 -1 -0 0
1 1.99122834205627441 -0.12117178738117218 -1 -0 0
1 3.70600700378417969 0.828272759914398193 -1 -0 0
1 3.24340462684631348 0.639923036098480225 -1 -0 0
1 0.622017502784729004 -0.027413761243224144 -1 -0 0
1 2.47169017791748047 -0.323549181222915649 -1 -0 0
1 0.971557915210723877 0.135914355516433716 -1 -0 0
1 3.2869417667388916 0.369398772716522217 -1 -0 0
1 1.61841738224029541 -0.0823839828372001648 -1 -0 0
1 3.59703373908996582 0.794056355953216553 -1 -0 0
1 2.00531601905822754 0.353261113166809082 -1 -0 0
1 3.98875784873962402 -0.635062754154205322 -1 -0 0
1 3.6852109432220459 -0.761390447616577148 -1 -0 0
1 2.32520246505737305 0.501799106597900391 -1 -0 0
1 3.22460484504699707 0.69097059965133667 -1 -0 0
1 3.47201085090637207 0.511241376399993896 -1 -0 0
1 3.87728762626647949 -0.56671828031539917 -1 -0 0
1 1.65762627124786377 0.00839659105986356735 -1 -0 0
1 3.20125126838684082 0.12679290771484375 -1 -0 0
1 2.00238275527954102 0.114745922386646271 -1 -0 0
1 2.04648303985595703 0.0593004040420055389 -1 -0 0
1 3.03457450866699219 0.344431370496749878 -1 -0 0
1 2.49828815460205078 0.271437376737594604 -1 -0 0
1 3.49419927597045898 -0.190391167998313904 -1 -0 0
1 3.44557023048400879 -0.285982757806777954 -1 -0 0
1 3.56678104400634766 -0.756596624851226807 -1 -0 0
1 2.06707262992858887 -0.343224376440048218 -1 -0 0
1 3.78479695320129395 -0.037966851145029068 -1 -0 0
1 3.81518959999084473 -0.511194050312042236 -1 -0 0
1 3.81350851058959961 0.845794379711151123 -1 -0 0
1 3.77543258666992188 -0.773326694965362549 -1 -0 0
1 3.71466374397277832 0.229258790612220764 -1 -0 0
1 0.98000568151473999 -0.172263219952583313 -1 -0 0
1 2.46116375923156738 -0.227087154984474182 -1 -0 0
1 3.88625001907348633 0.699391961097717285 -1 -0 0
1 3.34779453277587891 0.234152555465698242 -1 -0 0
1 3.52143979072570801 -0.533089876174926758 -1 -0 0
1 1.37560737133026123 -0.0940797775983810425 -1 -0 0
1 3.67163372039794922 0.287957429885864258 -1 -0 0
1 2.23920369148254395 -0.439292043447494507 -1 -0 0
1 3.73055148124694824 -0.0241856668144464493 -1 -0 0
1 2.66503214836120605 0.571204602718353271 -1 -0 0
1 2.42139935493469238 0.542814373970031738 -1 -0 0
1 1.23976302146911621 -0.0245863553136587143 -1 -0 0
1 1.86662817001342773 0.203463688492774963 -1 -0 0
1 1.72395038604736328 0.066200748085975647 -1 -0 0
1 3.70864081382751465 0.74864727258682251 -1 -0 0
1 0.30476042628288269 -0.00673490483313798904 -1 -0 0
1 2.83870577812194824 -0.151194304227828979 -1 -0 0
1 2.58536458015441895 -0.590426504611968994 -1 -0 0
1 1.17860794067382812 -0.196946337819099426 -1 -0 0
1 2.96201348304748535 -0.5341377854347229 -1 -0 0
1 2.73430323600769043 -0.538153350353240967 -1 -0 0
1 3.826629638671875 -0.131978988647460938 -1 -0 0
1 1.7706449031829834 0.0217950083315372467 -1 -0 0
1 2.27620625495910645 -0.400545626878738403 -1 -0 0
1 2.36772823333740234 0.336138039827346802 -1 -0 0
1 3.65859103202819824 0.890582680702209473 -1 -0 0
1 0.511090874671936035 0.0997541993856430054 -1 -0 0
1 3.5720527172088623 -0.696189284324645996 -1 -0 0
1 2.41564607620239258 0.196155339479446411 -1 -0 0
1 2.73501181602478027 -0.234452754259109497 -1 -0 0
1 1.49440503120422363 0.125830337405204773 -1 -0 0
1 3.90112066268920898 -0.674356222152709961 -1 -0 0
1 3.04723191261291504 0.572629094123840332 -1 -0 0
1 3.81265926361083984 -0.745564877986907959 -1 -0 0
1 0.440503627061843872 -0.0823566466569900513 -1 -0 0
1 2.14231586456298828 0.521489441394805908 -1 -0 0
1 3.39753150939941406 0.320061266422271729 -1 -0 0
1 3.84861946105957031 0.548708558082580566 -1 -0 0
1 2.7665107250213623 0.612458348274230957 -1 -0 0
1 3.18417811393737793 -0.483255177736282349 -1 -0 0
1 2.43587207794189453 -0.598518490791320801 -1 -0 0
1 2.84654998779296875 -0.247205018997192383 -1 -0 0
1 0.973828017711639404 -0.0792232006788253784 -1 -0 0
1 2.80209994316101074 -0.0975360646843910217 -1 -0 0
1 3.57535147666931152 0.268521726131439209 -1 -0 0
1 2.99233007431030273 -0.407920479774475098 -1 -0 0
1 3.89810419082641602 -0.964227974414825439 -1 -0 0
1 2.47779703140258789 0.324883103370666504 -1 -0 0
1 2.45740675926208496 0.385386496782302856 -1 -0 0
1 1.56755125522613525 -0.103530332446098328 -1 -0 0
1 2.47909784317016602 -0.513248622417449951 -1 -0 0
1 1.80146121978759766 0.250916033983230591 -1 -0 0
1 1.44294381141662598 0.2246418297290802 -1 -0 0
1 1.13555407524108887 0.16296212375164032 -1 -0 0
1 2.89032745361328125 -0.141296103596687317 -1 -0 0
1 3.11925578117370605 0.719412863254547119 -1 -0 0
1 3.73356246948242188 -0.698781013488769531 -1 -0 0
1 3.91065335273742676 0.750534653663635254 -1 -0 0
1 2.50021696090698242 -0.362036734819412231 -1 -0 0
1 2.92316055297851562 -0.562404870986938477 -1 -0 0
1 0.619230568408966064 -0.13905218243598938 -1 -0 0
1 2.68053984642028809 -0.291019648313522339 -1 -0 0
1 2.89391493797302246 -0.236214891076087952 -1 -0 0
1 2.42238092422485352 0.489821553230285645 -1 -0 0
1 2.80459237098693848 0.264436632394790649 -1 -0 0
1 2.00655388832092285 0.038280148059129715 -1 -0 0
1 2.1028895378112793 -0.296915948390960693 -1 -0 0
1 1.46923363208770752 -0.340570837259292603 -1 -0 0
1 2.0063023567199707 -0.352921545505523682 -1 -0 0
1 3.65428924560546875 -0.161347061395645142 -1 -0 0
