ply
format ascii 1.0
element vertex 724
property float x
property float y
property float z
property float nx
property float ny
property float nz
end_header
0.629032731056213379 4 0.197356835007667542 -0 -1 0
-0.169480875134468079 4 -0.462174028158187866 -0 -1 0
0.611190974712371826 4 -0.239692702889442444 -0 -1 0
0.878181397914886475 4 -0.0419175960123538971 -0 -1 0
-0.619489490985870361 4 -0.561237633228302002 -0 -1 0
0.273345142602920532 4 -0.536233782768249512 -0 -1 0
-0.355799317359924316 4 -0.719249367713928223 -0 -1 0
-0.101036116480827332 4 -0.659613251686096191 -0 -1 0
-0.0914122387766838074 4 -0.230106145143508911 -0 -1 0
-0.48429793119430542 4 -0.473591446876525879 -0 -1 0
0.425461262464523315 4 -0.942308545112609863 -0 -1 0
0.256160646677017212 4 -0.392753869295120239 -0 -1 0
0.226203203201293945 4 -0.3487357497215271 -0 -1 0
-0.318867713212966919 4 -0.161257997155189514 -0 -1 0
0.451540857553482056 4 -0.75039982795715332 -0 -1 0
-0.264277994632720947 4 -0.261505007743835449 -0 -1 0
0.134446665644645691 4 -0.683611512184143066 -0 -1 0
0.562141716480255127 4 -0.791202068328857422 -0 -1 0
0.480271279811859131 4 -0.71042710542678833 -0 -1 0
-0.733544588088989258 4 -0.327001124620437622 -0 -1 0
-0.212707579135894775 4 -0.571276187896728516 -0 -1 0
-0.554889976978302002 4 -0.2558785080909729 -0 -1 0
-0.214450821280479431 4 -0.239433020353317261 -0 -1 0
-0.0245550274848937988 4 -0.674356818199157715 -0 -1 0
-0.380810976028442383 4 -0.370400071144104004 -0 -1 0
-1.01362621784210205 4 -0.473502367734909058 -0 -1 0
0.414608627557754517 4 -0.560547947883605957 -0 -1 0
0.683340132236480713 4 0.23208010196685791 -0 -1 0
-0.438440322875976562 4 -0.579075098037719727 -0 -1 0
0.52507317066192627 4 -0.506026804447174072 -0 -1 0
0.96173393726348877 4 0.177307590842247009 -0 -1 0
0.304078102111816406 4 -0.446174979209899902 -0 -1 0
-0.0214017648249864578 4 -0.544852137565612793 -0 -1 0
-0.539349138736724854 4 -0.680473625659942627 -0 -1 0
0.106939449906349182 4 -0.0286022927612066269 -0 -1 0
-0.37553250789642334 4 -0.478114843368530273 -0 -1 0
0.843167245388031006 4 0.13146403431892395 -0 -1 0
-0.331586122512817383 4 -0.429078042507171631 -0 -1 0
0.563800156116485596 4 -0.622067272663116455 -0 -1 0
0.467395544052124023 4 -0.810724496841430664 -0 -1 0
0.23362557590007782 4 -0.269045114517211914 -0 -1 0
0.854452967643737793 4 0.253621160984039307 -0 -1 0
-0.526694416999816895 4 -0.622730553150177002 -0 -1 0
-0.163401633501052856 4 -0.406648457050323486 -0 -1 0
-0.103175148367881775 4 -0.547642648220062256 -0 -1 0
0.381992638111114502 4 -0.224393323063850403 -0 -1 0
-0.800403892993927002 4 -0.429199039936065674 -0 -1 0
-0.662659525871276855 4 -0.463818907737731934 -0 -1 0
0.549653112888336182 4 -0.299632072448730469 -0 -1 0
0.860017955303192139 4 -0.104087814688682556 -0 -1 0
0.409799128770828247 4 -0.607442140579223633 -0 -1 0
-0.0615381300449371338 4 -0.514158666133880615 -0 -1 0
-0.80668032169342041 4 -0.337722688913345337 -0 -1 0
-0.258878439664840698 4 -0.668493032455444336 -0 -1 0
0.778991878032684326 4 0.169153660535812378 -0 -1 0
-0.0562800318002700806 4 -0.775077521800994873 -0 -1 0
0.304485678672790527 4 0.0233887080103158951 -0 -1 0
-0.209062591195106506 4 -0.521278858184814453 -0 -1 0
-0.261833667755126953 4 -0.201599046587944031 -0 -1 0
-0.220034703612327576 4 -0.174877971410751343 -0 -1 0
0.115901835262775421 4 -0.142088130116462708 -0 -1 0
0.638650596141815186 4 -0.363811016082763672 -0 -1 0
0.317006200551986694 4 -0.253249645233154297 -0 -1 0
0.510129153728485107 4 -0.973588287830352783 -0 -1 0
0.263889729976654053 4 -0.309461802244186401 -0 -1 0
-0.220508560538291931 4 -0.388877183198928833 -0 -1 0
-0.0113392164930701256 4 -0.62663578987121582 -0 -1 0
0.272811621427536011 4 -0.592147767543792725 -0 -1 0
0.720676958560943604 4 -0.324117034673690796 -0 -1 0
0.0474241636693477631 4 -0.465600073337554932 -0 -1 0
0.643735110759735107 4 -0.539519429206848145 -0 -1 0
-0.438735365867614746 4 -0.686652421951293945 -0 -1 0
-0.895913004875183105 4 -0.498867630958557129 -0 -1 0
-0.224587962031364441 4 -0.290962278842926025 -0 -1 0
0.451658546924591064 4 -0.877718627452850342 -0 -1 0
0.508427858352661133 4 -0.593830227851867676 -0 -1 0
-0.163054972887039185 4 -0.749662160873413086 -0 -1 0
0.618701636791229248 4 -0.1290169358253479 -0 -1 0
0.28663182258605957 4 -0.854614555835723877 -0 -1 0
-0.056483738124370575 4 -0.123927690088748932 -0 -1 0
0.329809337854385376 4 -0.688104510307312012 -0 -1 0
0.356440275907516479 4 -0.987223327159881592 -0 -1 0
-0.252250134944915771 4 -0.110654391348361969 -0 -1 0
-0.44123917818069458 4 -0.522401928901672363 -0 -1 0
-0.139022946357727051 4 -0.624943196773529053 -0 -1 0
-0.395358532667160034 4 -0.550289750099182129 -0 -1 0
0.524182796478271484 4 -0.339317381381988525 -0 -1 0
0.686315834522247314 4 -0.0214650537818670273 -0 -1 0
0.295863956212997437 4 -0.941428959369659424 -0 -1 0
0.281619518995285034 4 -0.131988629698753357 -0 -1 0
0.410430192947387695 4 -0.283852279186248779 -0 -1 0
0.730281710624694824 4 -0.00217449245974421501 -0 -1 0
0.177660673856735229 4 -0.663448333740234375 -0 -1 0
-0.063147127628326416 4 -0.460925459861755371 -0 -1 0
0.208635002374649048 4 -0.0720549672842025757 -0 -1 0
0.735051572322845459 4 0.188864439725875854 -0 -1 0
0.600188732147216797 4 0.039702143520116806 -0 -1 0
0.709922134876251221 4 -0.219099178910255432 -0 -1 0
0.181922838091850281 4 -0.74645310640335083 -0 -1 0
-0.00623801397159695625 4 -0.209791511297225952 -0 -1 0
-0.297073036432266235 4 -0.54451751708984375 -0 -1 0
-0.693679869174957275 4 -0.559136688709259033 -0 -1 0
0.0854698792099952698 4 -0.429059594869613647 -0 -1 0
-0.000917526194825768471 4 -0.357087880373001099 -0 -1 0
-0.726400434970855713 4 -0.602974593639373779 -0 -1 0
0.497055560350418091 4 -0.850234031677246094 -0 -1 0
-0.394008427858352661 4 -0.659220516681671143 -0 -1 0
-0.650257229804992676 4 -0.384552359580993652 -0 -1 0
0.85147780179977417 4 0.0618448927998542786 -0 -1 0
0.358217418193817139 4 0.148318976163864136 -0 -1 0
-0.740960657596588135 4 -0.54378199577331543 -0 -1 0
0.0423352643847465515 4 -0.577852964401245117 -0 -1 0
0.413359552621841431 4 -0.144292056560516357 -0 -1 0
0.387539058923721313 4 -0.762990772724151611 -0 -1 0
0.892061293125152588 4 0.148455828428268433 -0 -1 0
0.310802608728408813 4 -0.304980278015136719 -0 -1 0
-0.00460934918373823166 4 -0.781533777713775635 -0 -1 0
-0.0567205548286437988 4 -0.026456199586391449 -0 -1 0
0.884320974349975586 4 0.0972681120038032532 -0 -1 0
0.95540618896484375 4 0.342660427093505859 -0 -1 0
-0.938793718814849854 4 -0.398307472467422485 -0 -1 0
0.935837328433990479 4 0.0927385017275810242 -0 -1 0
0.659864068031311035 4 -0.492621123790740967 -0 -1 0
0.226295635104179382 4 -0.119913741946220398 -0 -1 0
0.790991365909576416 4 0.115579351782798767 -0 -1 0
0.35197797417640686 4 -0.108247809112071991 -0 -1 0
0.434050798416137695 4 0.169871106743812561 -0 -1 0
0.0496315993368625641 4 -0.104450829327106476 -0 -1 0
-0.0379754006862640381 4 -0.817595362663269043 -0 -1 0
0.121817909181118011 4 -0.486667007207870483 -0 -1 0
0.353091001510620117 4 -0.582094490528106689 -0 -1 0
1.01187014579772949 4 0.404894530773162842 -0 -1 0
-0.534589469432830811 4 -0.427467942237854004 -0 -1 0
0.492747992277145386 4 -0.432300686836242676 -0 -1 0
0.0777168795466423035 4 -0.927370965480804443 -0 -1 0
-0.822291731834411621 4 -0.475665777921676636 -0 -1 0
-0.654784739017486572 4 -0.59086686372756958 -0 -1 0
0.0340156331658363342 4 -0.172160342335700989 -0 -1 0
0.105158105492591858 4 -0.214042812585830688 -0 -1 0
-0.228533819317817688 4 -0.463424056768417358 -0 -1 0
0.0262417756021022797 4 -0.824387431144714355 -0 -1 0
-0.628187775611877441 4 -0.502950608730316162 -0 -1 0
-0.27543562650680542 4 -0.758580505847930908 -0 -1 0
0.587358295917510986 4 0.170723915100097656 -0 -1 0
-0.0565783530473709106 4 -0.594382643699645996 -0 -1 0
0.720618486404418945 4 0.0557662658393383026 -0 -1 0
0.117363601922988892 4 0.0220534224063158035 -0 -1 0
-0.405040770769119263 4 -0.234055116772651672 -0 -1 0
0.762426018714904785 4 -0.126523464918136597 -0 -1 0
0.181393474340438843 4 -0.429740846157073975 -0 -1 0
0.302348285913467407 4 0.104333221912384033 -0 -1 0
0.427302420139312744 4 -0.41076996922492981 -0 -1 0
0.955574870109558105 4 0.279874682426452637 -0 -1 0
0.158717930316925049 4 -0.0540268868207931519 -0 -1 0
0.630126357078552246 4 -0.176906958222389221 -0 -1 0
0.685023307800292969 4 0.185460209846496582 -0 -1 0
-0.154979169368743896 4 -0.679602980613708496 -0 -1 0
-0.305911660194396973 4 -0.607373952865600586 -0 -1 0
0.380755722522735596 4 -0.0520469509065151215 -0 -1 0
-0.942472934722900391 4 -0.455246537923812866 -0 -1 0
-0.751232385635375977 4 -0.448276251554489136 -0 -1 0
-0.0180213749408721924 4 -0.156000539660453796 -0 -1 0
0.113456659018993378 4 -0.813612103462219238 -0 -1 0
0.212953656911849976 4 -0.196967050433158875 -0 -1 0
0.596768975257873535 4 -0.745425939559936523 -0 -1 0
0.673237085342407227 4 -0.256909638643264771 -0 -1 0
0.560605823993682861 4 0.0787584036588668823 -0 -1 0
0.596897304058074951 4 -0.470226287841796875 -0 -1 0
-0.0026384920347481966 4 -0.467520356178283691 -0 -1 0
0.410147309303283691 4 -1.06168544292449951 -0 -1 0
0.823481202125549316 4 -0.0455354787409305573 -0 -1 0
0.807035446166992188 4 -0.196825385093688965 -0 -1 0
-0.0604483336210250854 4 -0.370105504989624023 -0 -1 0
0.911060750484466553 4 -0.00176713790278881788 -0 -1 0
-0.168483436107635498 4 -0.816057384014129639 -0 -1 0
0.400548666715621948 4 -0.864980340003967285 -0 -1 0
0.723307430744171143 4 -0.155511289834976196 -0 -1 0
0.435958802700042725 4 -0.0858649536967277527 -0 -1 0
0.867873787879943848 4 0.187933951616287231 -0 -1 0
-0.538139462471008301 4 -0.349055618047714233 -0 -1 0
0.800332546234130859 4 0.247242510318756104 -0 -1 0
0.786644816398620605 4 0.00910326652228832245 -0 -1 0
-0.392707794904708862 4 -0.421515315771102905 -0 -1 0
-0.340330988168716431 4 -0.243228316307067871 -0 -1 0
0.130144193768501282 4 -0.25870022177696228 -0 -1 0
0.637120723724365234 4 -0.0531010143458843231 -0 -1 0
-0.515707194805145264 4 -0.567417919635772705 -0 -1 0
0.104550197720527649 4 -0.5355185866355896 -0 -1 0
0.223046809434890747 4 -0.535734593868255615 -0 -1 0
-0.525496602058410645 4 -0.294408917427062988 -0 -1 0
0.361809194087982178 4 -0.369515836238861084 -0 -1 0
0.563511073589324951 4 0.000679783988744020462 -0 -1 0
-0.156080573797225952 4 -0.57515406608581543 -0 -1 0
0.265778630971908569 4 0.058635219931602478 -0 -1 0
0.673606574535369873 4 -0.0869765207171440125 -0 -1 0
0.325260818004608154 4 -0.628652691841125488 -0 -1 0
0.278683722019195557 4 -0.797909677028656006 -0 -1 0
0.18969118595123291 4 -0.255795001983642578 -0 -1 0
0.370851695537567139 4 -0.807910561561584473 -0 -1 0
0.0194539353251457214 4 -0.725780785083770752 -0 -1 0
0.376618772745132446 4 -0.647858858108520508 -0 -1 0
0.068685285747051239 4 -0.386712849140167236 -0 -1 0
-0.306212872266769409 4 -0.664969682693481445 -0 -1 0
0.638881921768188477 4 0.07868928462266922 -0 -1 0
0.326546698808670044 4 -0.83312225341796875 -0 -1 0
-0.539948165416717529 4 -0.483824372291564941 -0 -1 0
0.546545922756195068 4 -0.445008605718612671 -0 -1 0
-0.120552480220794678 4 -0.426161527633666992 -0 -1 0
0.902019619941711426 4 0.0524260923266410828 -0 -1 0
-0.478796124458312988 4 -0.328107684850692749 -0 -1 0
-0.370903909206390381 4 -0.600373983383178711 -0 -1 0
0.583919167518615723 4 -0.0495170019567012787 -0 -1 0
0.228860870003700256 4 -0.712589085102081299 -0 -1 0
0.589531362056732178 4 0.116918250918388367 -0 -1 0
-0.879774928092956543 4 -0.385643541812896729 -0 -1 0
-0.222116455435752869 4 -0.699765503406524658 -0 -1 0
0.678109526634216309 4 -0.136751055717468262 -0 -1 0
0.505035996437072754 4 -0.905107259750366211 -0 -1 0
0.0872007608413696289 4 -0.334258526563644409 -0 -1 0
0.611087262630462646 4 -0.638209283351898193 -0 -1 0
0.51791459321975708 4 0.199611663818359375 -0 -1 0
0.491423964500427246 4 -0.113380163908004761 -0 -1 0
-0.574095427989959717 4 -0.523328065872192383 -0 -1 0
0.231298774480819702 4 -0.842034041881561279 -0 -1 0
0.695842921733856201 4 0.108310028910636902 -0 -1 0
0.277335792779922485 4 -0.674421131610870361 -0 -1 0
-0.373941123485565186 4 -0.19365711510181427 -0 -1 0
-0.452158868312835693 4 -0.633804678916931152 -0 -1 0
0.751996397972106934 4 -0.252899646759033203 -0 -1 0
-0.256799072027206421 4 -0.588458240032196045 -0 -1 0
0.209771126508712769 4 -0.789302706718444824 -0 -1 0
0.586484074592590332 4 -0.518669426441192627 -0 -1 0
0.0228707138448953629 4 -0.906156182289123535 -0 -1 0
-0.0159191563725471497 4 -0.277236193418502808 -0 -1 0
0.477831542491912842 4 0.0129802180454134941 -0 -1 0
0.381862610578536987 4 -0.920939803123474121 -0 -1 0
-0.840145766735076904 4 -0.530939757823944092 -0 -1 0
0.160915687680244446 4 -0.890887856483459473 -0 -1 0
0.344072133302688599 4 -1.03943896293640137 -0 -1 0
0.267633676528930664 4 -0.0730434581637382507 -0 -1 0
-0.729780614376068115 4 -0.389246284961700439 -0 -1 0
-0.4815407395362854 4 -0.374684661626815796 -0 -1 0
0.277426689863204956 4 -0.733129799365997314 -0 -1 0
0.356839090585708618 4 0.0179312005639076233 -0 -1 0
0.644711673259735107 4 0.146757632493972778 -0 -1 0
0.203752070665359497 4 -0.976316332817077637 -0 -1 0
0.641080677509307861 4 -0.419518619775772095 -0 -1 0
0.765480458736419678 4 -0.0793807283043861389 -0 -1 0
-0.0805992633104324341 4 -0.855053603649139404 -0 -1 0
-0.623264908790588379 4 -0.434890687465667725 -0 -1 0
0.586765944957733154 4 -0.349464863538742065 -0 -1 0
-0.359908640384674072 4 -0.289724379777908325 -0 -1 0
-0.775063931941986084 4 -0.373342454433441162 -0 -1 0
0.381563037633895874 4 -0.477309644222259521 -0 -1 0
-0.332987964153289795 4 -0.366393506526947021 -0 -1 0
-0.102690771222114563 4 -0.150375574827194214 -0 -1 0
-0.105172589421272278 4 -0.0971695184707641602 -0 -1 0
-0.405882418155670166 4 -0.728642582893371582 -0 -1 0
-0.770511150360107422 4 -0.502484977245330811 -0 -1 0
0.544053912162780762 4 -0.550731241703033447 -0 -1 0
0.168026372790336609 4 -0.483957588672637939 -0 -1 0
0.353424549102783203 4 0.0855376720428466797 -0 -1 0
-0.172501727938652039 4 -0.10359279066324234 -0 -1 0
0.0914634168148040771 4 -0.746173202991485596 -0 -1 0
0.331505566835403442 4 -0.0578016862273216248 -0 -1 0
0.925080955028533936 4 0.233413234353065491 -0 -1 0
-0.344867616891860962 4 -0.775317549705505371 -0 -1 0
-0.864980757236480713 4 -0.44776451587677002 -0 -1 0
0.540643215179443359 4 -0.099628254771232605 -0 -1 0
0.825759589672088623 4 -0.13469541072845459 -0 -1 0
-0.430173128843307495 4 -0.312706649303436279 -0 -1 0
-0.345640212297439575 4 -0.55191957950592041 -0 -1 0
-0.271140158176422119 4 -0.382985621690750122 -0 -1 0
0.162082642316818237 4 -0.0033104470930993557 -0 -1 0
0.688584506511688232 4 -0.375758767127990723 -0 -1 0
0.16765931248664856 4 -0.611094236373901367 -0 -1 0
0.0637637972831726074 4 -0.27776375412940979 -0 -1 0
-0.574049472808837891 4 -0.386907756328582764 -0 -1 0
-0.295850932598114014 4 -0.319036364555358887 -0 -1 0
-0.0344040393829345703 4 -0.413870066404342651 -0 -1 0
0.175278574228286743 4 -0.847146451473236084 -0 -1 0
-0.636958837509155273 4 -0.278707683086395264 -0 -1 0
0.484492301940917969 4 -0.0514961034059524536 -0 -1 0
0.484481930732727051 4 -0.251531124114990234 -0 -1 0
0.520695805549621582 4 0.136541947722434998 -0 -1 0
0.107624620199203491 4 -0.0915001258254051208 -0 -1 0
0.275452286005020142 4 -0.21732659637928009 -0 -1 0
0.688042342662811279 4 -0.432562202215194702 -0 -1 0
0.275577276945114136 4 -0.0243683233857154846 -0 -1 0
0.508122622966766357 4 -0.6724051833152771 -0 -1 0
-0.0635199248790740967 4 -0.188047915697097778 -0 -1 0
0.328328341245651245 4 -0.536012828350067139 -0 -1 0
0.513720691204071045 4 -0.165933683514595032 -0 -1 0
0.491884589195251465 4 -0.375107884407043457 -0 -1 0
-0.157858178019523621 4 -0.355200350284576416 -0 -1 0
0.17584855854511261 4 -0.304100304841995239 -0 -1 0
0.041156962513923645 4 0.0076627279631793499 -0 -1 0
0.159489542245864868 4 -0.168103531002998352 -0 -1 0
0.821496307849884033 4 0.305423706769943237 -0 -1 0
-0.982185006141662598 4 -0.420354634523391724 -0 -1 0
-0.0657976344227790833 4 -0.700745522975921631 -0 -1 0
0.403638482093811035 4 0.0953348353505134583 -0 -1 0
0.525364577770233154 4 -0.223073616623878479 -0 -1 0
0.138742148876190186 4 -0.357191205024719238 -0 -1 0
-0.0678350850939750671 4 -0.298676908016204834 -0 -1 0
0.479156821966171265 4 0.113365307450294495 -0 -1 0
0.334960699081420898 4 -0.200999066233634949 -0 -1 0
0.306765496730804443 4 -1.00392138957977295 -0 -1 0
-0.667286396026611328 4 -0.99703514575958252 -0 -1 -0
-0.734729886054992676 4 -0.899080812931060791 -0 -1 0
-0.489020377397537231 4 -1.0881953239440918 -0 -1 0
-0.418091803789138794 4 -0.95261073112487793 -0 -1 0
-0.341477841138839722 4 -0.996940314769744873 -0 -1 0
0.0363422781229019165 4 -1.04858243465423584 -0 -1 0
0.17585676908493042 4 -1.06700611114501953 -0 -1 0
-0.0471227541565895081 4 -1.08552992343902588 -0 -1 0
0.37128901481628418 4 -1.0972132682800293 -0 -1 0
-0.494791239500045776 4 -1.00323569774627686 -0 -1 0
-0.402931451797485352 4 -1.02841901779174805 -0 -1 0
-0.292671144008636475 4 -0.989641010761260986 -0 -1 0
-0.593789100646972656 4 -0.957684993743896484 -0 -1 0
-0.600526571273803711 4 -0.902882993221282959 -0 -1 0
-0.279678553342819214 4 -1.06110262870788574 -0 -1 0
-0.188597425818443298 4 -1.02636468410491943 -0 -1 0
-0.339478164911270142 4 -1.05723392963409424 -0 -1 0
-0.45640680193901062 4 -1.03597915172576904 -0 -1 0
-0.0331103391945362091 4 -1.03945064544677734 -0 -1 0
-0.490040063858032227 4 -0.948667526245117188 -0 -1 0
0.287755012512207031 4 -1.09069693088531494 -0 -1 0
0.238662362098693848 4 -1.07475936412811279 -0 -1 0
-0.679086565971374512 4 -0.946680426597595215 -0 -1 0
-0.554520606994628906 4 -0.919948458671569824 -0 -1 0
0.0856292396783828735 4 -1.10741901397705078 -0 -1 0
-0.12612578272819519 4 -1.06941080093383789 -0 -1 0
-0.289101958274841309 4 -1.12676596641540527 -0 -1 0
-0.233962744474411011 4 -1.10940754413604736 -0 -1 0
0.0123268058523535728 4 -1.116668701171875 -0 -1 0
0.1889161616563797 4 -1.11345267295837402 -0 -1 0
0.140278652310371399 4 -1.11566603183746338 -0 -1 0
-0.172398090362548828 4 -1.11249613761901855 -0 -1 0
-0.254212260246276855 4 -1.16713249683380127 -0 -1 0
-0.100460514426231384 4 -1.13085150718688965 -0 -1 0
-0.440326124429702759 4 -1.10876631736755371 -0 -1 0
0.168457016348838806 4 -1.16240692138671875 -0 -1 0
0.0995885953307151794 4 -1.16644537448883057 -0 -1 0
-0.00302100274711847305 4 -1.16277587413787842 -0 -1 0
0.696926116943359375 4 -0.954298436641693115 -0 -1 -0
0.600209176540374756 4 -1.03188228607177734 -0 -1 -0
0.758603811264038086 4 -0.920797228813171387 -0 -1 -0
0.572770237922668457 4 -0.859730720520019531 -0 -1 0
0.846619963645935059 4 -0.327470660209655762 -0 -1 0
0.653403162956237793 4 -0.657319724559783936 -0 -1 0
0.658406615257263184 4 -0.861244618892669678 -0 -1 0
0.709389150142669678 4 -0.67033010721206665 -0 -1 0
0.826537728309631348 4 -0.84530329704284668 -0 -1 0
0.647920668125152588 4 -0.734438836574554443 -0 -1 0
0.938757061958312988 4 -0.117051206529140472 -0 -1 0
0.761752963066101074 4 -0.821583867073059082 -0 -1 0
0.810935676097869873 4 -0.626097500324249268 -0 -1 0
0.847449123859405518 4 -0.462072938680648804 -0 -1 0
0.822885453701019287 4 -0.268180698156356812 -0 -1 0
0.784672141075134277 4 -0.404755175113677979 -0 -1 0
0.592420279979705811 4 -0.967464864253997803 -0 -1 0
0.817199349403381348 4 -0.746383190155029297 -0 -1 0
0.748625338077545166 4 -0.635826051235198975 -0 -1 0
0.854589581489562988 4 -0.182690620422363281 -0 -1 0
1.03464078903198242 4 0.24002528190612793 -0 -1 0
0.986933588981628418 4 -0.0334596522152423859 -0 -1 0
1.04536163806915283 4 0.287081927061080933 -0 -1 0
0.888358175754547119 4 -0.410475969314575195 -0 -1 0
0.871553659439086914 4 -0.647596895694732666 -0 -1 0
0.970129787921905518 4 0.0527244806289672852 -0 -1 0
1.02323460578918457 4 0.173904091119766235 -0 -1 0
0.760992646217346191 4 -0.682397425174713135 -0 -1 0
0.502158939838409424 4 -1.02636563777923584 -0 -1 0
0.904925942420959473 4 -0.226867109537124634 -0 -1 0
0.71992790699005127 4 -0.587233245372772217 -0 -1 0
0.926013588905334473 4 -0.453482687473297119 -0 -1 0
0.61911618709564209 4 -0.817506670951843262 -0 -1 0
0.719944119453430176 4 -0.526376664638519287 -0 -1 0
0.831233978271484375 4 -0.546363174915313721 -0 -1 0
0.951805233955383301 4 -0.256994426250457764 -0 -1 0
0.78222501277923584 4 -0.77616417407989502 -0 -1 0
0.940070986747741699 4 -0.31435665488243103 -0 -1 0
0.928216874599456787 4 -0.382996141910552979 -0 -1 0
0.549752771854400635 4 -1.04452145099639893 -0 -1 0
0.821293294429779053 4 -0.672486782073974609 -0 -1 0
0.810545980930328369 4 -0.505230188369750977 -0 -1 0
0.749947190284729004 4 -0.730579972267150879 -0 -1 0
0.699982762336730957 4 -0.75641930103302002 -0 -1 0
0.645461916923522949 4 -0.918766796588897705 -0 -1 0
0.896718680858612061 4 -0.152256876230239868 -0 -1 0
0.64090961217880249 4 -0.973478317260742188 -0 -1 0
1.01643288135528564 4 0.04116009920835495 -0 -1 0
0.676033258438110352 4 -0.816549479961395264 -0 -1 0
0.858247458934783936 4 -0.594738960266113281 -0 -1 0
0.890869557857513428 4 -0.290796428918838501 -0 -1 0
0.933998942375183105 4 -0.0474921353161334991 -0 -1 0
0.759954452514648438 4 -0.460689157247543335 -0 -1 0
0.740853726863861084 4 -0.871933996677398682 -0 -1 0
1.02866923809051514 4 0.0930163413286209106 -0 -1 0
1.01267576217651367 4 -0.622102022171020508 -0 -1 -0
1.06726467609405518 4 -0.534865736961364746 -0 -1 -0
1.0913468599319458 4 0.331976056098937988 -0 -1 0
0.928738832473754883 4 -0.690774142742156982 -0 -1 0
0.975469529628753662 4 -0.211483612656593323 -0 -1 0
1.03435492515563965 4 -0.183505997061729431 -0 -1 0
1.07263052463531494 4 -0.307789921760559082 -0 -1 0
0.907389640808105469 4 -0.609787583351135254 -0 -1 0
1.01164460182189941 4 -0.28714066743850708 -0 -1 0
0.952190756797790527 4 -0.566852688789367676 -0 -1 0
0.980440318584442139 4 -0.513280510902404785 -0 -1 0
0.875997424125671387 4 -0.753371536731719971 -0 -1 0
1.07296347618103027 4 0.123874612152576447 -0 -1 0
1.04078090190887451 4 -0.120750479400157928 -0 -1 0
0.974496006965637207 4 -0.440368205308914185 -0 -1 0
1.00391900539398193 4 -0.553281486034393311 -0 -1 0
1.07023155689239502 4 -0.0658166632056236267 -0 -1 0
1.01282203197479248 4 -0.373605459928512573 -0 -1 0
1.05605506896972656 4 -0.261103957891464233 -0 -1 0
1.08187460899353027 4 -0.212733671069145203 -0 -1 0
1.10119962692260742 4 0.168067634105682373 -0 -1 0
1.0898137092590332 4 -0.0164102446287870407 -0 -1 0
1.04704022407531738 4 0.00125175982248038054 -0 -1 0
1.08888339996337891 4 -0.398479878902435303 -0 -1 0
1.0752941370010376 4 0.214338377118110657 -0 -1 0
1.07509458065032959 4 -0.156638741493225098 -0 -1 0
0.918656110763549805 4 -0.499142587184906006 -0 -1 0
1.02380836009979248 4 -0.457818448543548584 -0 -1 0
1.111366868019104 4 0.0381515435874462128 -0 -1 -0
1.15857839584350586 4 -0.174571201205253601 -0 -1 -0
1.11220812797546387 4 0.0908527225255966187 -0 -1 -0
1.13123154640197754 4 -0.371506839990615845 -0 -1 -0
1.14715003967285156 4 -0.0551912002265453339 -0 -1 -0
1.12087368965148926 4 0.280749410390853882 -0 -1 -0
1.13118422031402588 4 0.224739819765090942 -0 -1 -0
1.11608290672302246 4 -0.119995228946208954 -0 -1 -0
1.15786623954772949 4 0.0227781441062688828 -0 -1 -0
1.16183483600616455 4 0.110519170761108398 -0 -1 -0
1.17379319667816162 4 -0.126030027866363525 -0 -1 -0
1.15153276920318604 4 0.168063178658485413 -0 -1 -0
1.18840467929840088 4 0.0692382752895355225 -0 -1 -0
1.11057329177856445 4 0.452472507953643799 -0 -1 -0
0.980425417423248291 4 0.67673945426940918 -0 -1 -0
0.33357703685760498 4 0.916305422782897949 0 -1 -0
0.0303023438900709152 4 0.982357621192932129 0 -1 -0
0.122836805880069733 4 1.10025703907012939 0 -1 -0
-0.226245760917663574 4 1.04167640209197998 0 -1 -0
-0.0845707207918167114 4 1.05233418941497803 0 -1 -0
0.0961913689970970154 4 1.04622304439544678 0 -1 -0
0.522206783294677734 4 0.830042362213134766 0 -1 -0
0.450781315565109253 4 0.895584702491760254 0 -1 -0
-0.377660989761352539 4 1.07721328735351562 0 -1 -0
0.663805186748504639 4 0.653837442398071289 0 -1 -0
0.614203989505767822 4 0.702451825141906738 0 -1 -0
0.463996559381484985 4 0.780571520328521729 0 -1 -0
0.207647576928138733 4 0.926937282085418701 0 -1 -0
-0.148472309112548828 4 0.990628361701965332 0 -1 -0
0.71918189525604248 4 0.664420425891876221 0 -1 -0
0.569459795951843262 4 0.684959709644317627 0 -1 -0
0.53572767972946167 4 0.735719025135040283 0 -1 -0
0.313205599784851074 4 0.860230386257171631 0 -1 -0
0.156768009066581726 4 1.05844235420227051 0 -1 -0
0.0315029509365558624 4 1.11020493507385254 0 -1 -0
0.176521658897399902 4 0.984642505645751953 0 -1 -0
-0.00108980585355311632 4 1.16706991195678711 0 -1 -0
0.213685572147369385 4 0.857897102832794189 0 -1 -0
-0.0825317949056625366 4 0.999662399291992188 0 -1 -0
0.0421308428049087524 4 0.91766887903213501 0 -1 -0
0.694017887115478516 4 0.712894976139068604 0 -1 -0
0.315549731254577637 4 0.972832798957824707 0 -1 -0
0.542779266834259033 4 0.782218098640441895 0 -1 -0
0.252717047929763794 4 0.886701345443725586 0 -1 -0
0.762421250343322754 4 0.633466064929962158 0 -1 -0
-0.170203268527984619 4 1.10724711418151855 0 -1 -0
0.825772345066070557 4 0.607172369956970215 0 -1 -0
-0.231392785906791687 4 1.10075891017913818 0 -1 -0
0.122040309011936188 4 0.908372581005096436 0 -1 -0
-0.0227128323167562485 4 0.978531420230865479 0 -1 -0
0.380735158920288086 4 0.893207967281341553 0 -1 -0
0.625429391860961914 4 0.76084291934967041 0 -1 -0
0.0669618993997573853 4 1.14614975452423096 0 -1 -0
-0.0341210588812828064 4 1.05734539031982422 0 -1 -0
0.809619367122650146 4 0.65775454044342041 0 -1 -0
0.353863298892974854 4 0.815028786659240723 0 -1 -0
-0.137624561786651611 4 1.06135928630828857 0 -1 -0
0.293497979640960693 4 0.804467856884002686 0 -1 -0
0.0156018044799566269 4 1.04111552238464355 0 -1 -0
0.470849484205245972 4 0.835763096809387207 0 -1 -0
-0.0441667512059211731 4 1.14712846279144287 0 -1 -0
0.103042237460613251 4 0.982873737812042236 0 -1 -0
-0.17750491201877594 4 1.03526413440704346 0 -1 -0
0.409678518772125244 4 0.783898770809173584 0 -1 -0
0.274574398994445801 4 0.940856754779815674 0 -1 -0
-0.102945223450660706 4 1.14810550212860107 0 -1 -0
0.307443141937255859 4 1.03396153450012207 -0 -1 -0
0.75116884708404541 4 0.815340697765350342 -0 -1 -0
0.432412803173065186 4 1.07763826847076416 -0 -1 -0
0.67797929048538208 4 0.840711534023284912 -0 -1 -0
0.876509428024291992 4 0.615221023559570312 -0 -1 -0
0.406840026378631592 4 0.947556614875793457 -0 -1 -0
0.949954211711883545 4 0.580875873565673828 -0 -1 -0
0.362038463354110718 4 0.978084921836853027 -0 -1 -0
0.620094418525695801 4 0.902064263820648193 -0 -1 -0
0.896810233592987061 4 0.665678799152374268 -0 -1 -0
0.702307224273681641 4 0.797538816928863525 -0 -1 -0
0.386667102575302124 4 1.02606117725372314 -0 -1 -0
0.253504782915115356 4 1.119637131690979 -0 -1 -0
0.34894070029258728 4 1.06111204624176025 -0 -1 -0
0.439970731735229492 4 1.00946009159088135 -0 -1 -0
0.760895311832427979 4 0.761446952819824219 -0 -1 -0
0.635912716388702393 4 0.808430135250091553 -0 -1 -0
0.496719300746917725 4 0.92562180757522583 -0 -1 -0
1.06751883029937744 4 0.493660271167755127 -0 -1 -0
0.496070533990859985 4 1.0183110237121582 -0 -1 -0
0.534917831420898438 4 0.898937225341796875 -0 -1 -0
0.30118831992149353 4 1.08627927303314209 -0 -1 -0
0.205371618270874023 4 1.07720470428466797 -0 -1 -0
0.754809737205505371 4 0.699141204357147217 -0 -1 -0
0.572469115257263184 4 0.850695431232452393 -0 -1 -0
0.369253724813461304 4 1.10564959049224854 -0 -1 -0
0.603478491306304932 4 0.973796725273132324 -0 -1 -0
0.966315388679504395 4 0.625309407711029053 -0 -1 -0
0.837375760078430176 4 0.808956682682037354 -0 -1 -0
1.01459896564483643 4 0.591428577899932861 -0 -1 -0
0.876933872699737549 4 0.709378063678741455 -0 -1 -0
1.0366138219833374 4 0.536559164524078369 -0 -1 -0
0.654521286487579346 4 0.961438536643981934 -0 -1 -0
0.847953379154205322 4 0.760689318180084229 -0 -1 -0
0.672361910343170166 4 0.914845645427703857 -0 -1 -0
0.53464043140411377 4 1.06340634822845459 -0 -1 -0
0.160760730504989624 4 1.1687774658203125 -0 -1 -0
0.217635542154312134 4 1.17835092544555664 -0 -1 -0
-0.139433920383453369 4 1.18611478805541992 -0 -1 -0
-0.0403129644691944122 4 1.19505953788757324 -0 -1 -0
-0.364154726266860962 4 1.13297784328460693 -0 -1 -0
-0.229556739330291748 4 1.15761089324951172 -0 -1 -0
-0.721914827823638916 4 0.872686386108398438 -0 -1 -0
-0.989295780658721924 4 0.636749148368835449 -0 -1 -0
-0.765954315662384033 4 0.833973526954650879 -0 -1 -0
-0.807527542114257812 4 0.810411036014556885 -0 -1 -0
-0.89413297176361084 4 0.686450362205505371 -0 -1 -0
-0.648010075092315674 4 0.922107577323913574 -0 -1 -0
-0.943075239658355713 4 0.681121587753295898 -0 -1 -0
-0.483757436275482178 4 1.09168040752410889 -0 -1 -0
-0.910518467426300049 4 0.742585957050323486 -0 -1 -0
-0.706424415111541748 4 0.920124590396881104 -0 -1 -0
-0.829133808612823486 4 0.85333251953125 -0 -1 -0
-0.624239921569824219 4 0.980310559272766113 -0 -1 -0
-0.77625882625579834 4 0.905004918575286865 -0 -1 -0
-0.442365020513534546 1.90060639381408691 -1.11376869678497314 0.290284812450408936 0 0.956940293312072754
-0.427637100219726562 0.371839016675949097 -1.11823630332946777 0.290284812450408936 0 0.956940293312072754
-0.40640529990196228 2.40456104278564453 -1.12467694282531738 0.290284812450408936 0 0.956940293312072754
-0.366086602210998535 0.0574289262294769287 -1.13690745830535889 0.290284812450408936 0 0.956940293312072754
-0.316033601760864258 1.22911715507507324 -1.15209090709686279 0.290284812450408936 0 0.956940293312072754
-0.428355604410171509 1.27759015560150146 -1.11801838874816895 0.290284812450408936 0 0.956940293312072754
-0.411047279834747314 0.0673637166619300842 -1.12326884269714355 0.290284812450408936 0 0.956940293312072754
-0.350560098886489868 1.74552333354949951 -1.14161741733551025 0.290284812450408936 0 0.956940293312072754
-0.380147099494934082 1.63396573066711426 -1.13264226913452148 0.290284812450408936 0 0.956940293312072754
-0.433372050523757935 0.612607598304748535 -1.11649668216705322 0.290284812450408936 0 0.956940293312072754
-0.375613123178482056 1.46529972553253174 -1.13401758670806885 0.290284812450408936 0 0.956940293312072754
-0.343476772308349609 1.12454104423522949 -1.14376604557037354 0.290284812450408936 0 0.956940293312072754
-0.442937374114990234 0.465378403663635254 -1.11359500885009766 0.290284812450408936 0 0.956940293312072754
-0.455349504947662354 0.282574206590652466 -1.10982990264892578 0.290284812450408936 0 0.956940293312072754
-0.339392781257629395 0.751281142234802246 -1.1450049877166748 0.290284812450408936 0 0.956940293312072754
-0.389238178730010986 2.71661782264709473 -1.12988448143005371 0.290284812450408936 0 0.956940293312072754
-0.322872191667556763 0.209620311856269836 -1.1500164270401001 0.290284812450408936 0 0.956940293312072754
-0.419560074806213379 1.95529747009277344 -1.12068641185760498 0.290284812450408936 0 0.956940293312072754
-0.429528653621673584 2.51439380645751953 -1.11766254901885986 0.290284812450408936 0 0.956940293312072754
-0.415642261505126953 2.98891830444335938 -1.12187492847442627 0.290284812450408936 0 0.956940293312072754
-0.401430785655975342 2.20022821426391602 -1.12618589401245117 0.290284812450408936 0 0.956940293312072754
-0.355120927095413208 1.25777316093444824 -1.14023387432098389 0.290284812450408936 0 0.956940293312072754
-0.438266992568969727 0.799944818019866943 -1.11501181125640869 0.290284812450408936 0 0.956940293312072754
-0.376102209091186523 2.35015487670898438 -1.13386929035186768 0.290284812450408936 0 0.956940293312072754
-0.345813751220703125 1.58613717555999756 -1.14305722713470459 0.290284812450408936 0 0.956940293312072754
-0.425391525030136108 0.981912791728973389 -1.11891746520996094 0.290284812450408936 0 0.956940293312072754
-0.374108552932739258 0.99853748083114624 -1.13447403907775879 0.290284812450408936 0 0.956940293312072754
-0.28756338357925415 0.121093064546585083 -1.16072726249694824 0.290284812450408936 0 0.956940293312072754
-0.448035925626754761 2.37931370735168457 -1.11204838752746582 0.290284812450408936 0 0.956940293312072754
-0.314290255308151245 0.855032205581665039 -1.15261971950531006 0.290284812450408936 0 0.956940293312072754
-0.404015511274337769 1.86683201789855957 -1.12540185451507568 0.290284812450408936 0 0.956940293312072754
-0.418421089649200439 1.42721998691558838 -1.1210319995880127 0.290284812450408936 0 0.956940293312072754
-0.456323057413101196 2.47452163696289062 -1.10953450202941895 0.290284812450408936 0 0.956940293312072754
-0.453831970691680908 2.77380180358886719 -1.11029016971588135 0.290284812450408936 0 0.956940293312072754
-0.352124541997909546 1.41405725479125977 -1.14114284515380859 0.290284812450408936 0 0.956940293312072754
-0.43269839882850647 0.119585402309894562 -1.11670100688934326 0.290284812450408936 0 0.956940293312072754
-0.296258419752120972 1.05747532844543457 -1.15808963775634766 0.290284812450408936 0 0.956940293312072754
-0.45666465163230896 3.20073938369750977 -1.10943090915679932 0.290284812450408936 0 0.956940293312072754
-0.322635352611541748 1.18361055850982666 -1.15008831024169922 0.290284812450408936 0 0.956940293312072754
-0.350390255451202393 0.338432103395462036 -1.14166891574859619 0.290284812450408936 0 0.956940293312072754
-0.395518392324447632 0.489351809024810791 -1.12797939777374268 0.290284812450408936 0 0.956940293312072754
-0.441812515258789062 0.174415826797485352 -1.11393630504608154 0.290284812450408936 0 0.956940293312072754
-0.362191289663314819 1.97570979595184326 -1.13808906078338623 0.290284812450408936 0 0.956940293312072754
-0.273103028535842896 0.182656466960906982 -1.16511368751525879 0.290284812450408936 0 0.956940293312072754
-0.352026194334030151 1.68535029888153076 -1.14117264747619629 0.290284812450408936 0 0.956940293312072754
-0.436569571495056152 0.699808180332183838 -1.11552667617797852 0.290284812450408936 0 0.956940293312072754
-0.370365023612976074 0.401432037353515625 -1.13560962677001953 0.290284812450408936 0 0.956940293312072754
-0.383213818073272705 0.187474608421325684 -1.13171195983886719 0.290284812450408936 0 0.956940293312072754
-0.374893695116043091 1.18603789806365967 -1.13423585891723633 0.290284812450408936 0 0.956940293312072754
-0.423342049121856689 1.19739758968353271 -1.11953926086425781 0.290284812450408936 0 0.956940293312072754
-0.41958916187286377 1.53192329406738281 -1.12067759037017822 0.290284812450408936 0 0.956940293312072754
-0.400526374578475952 0.747467398643493652 -1.12646031379699707 0.290284812450408936 0 0.956940293312072754
-0.420274585485458374 2.32540655136108398 -1.12046968936920166 0.290284812450408936 0 0.956940293312072754
-0.451812386512756348 1.49280250072479248 -1.11090278625488281 0.290284812450408936 0 0.956940293312072754
-0.456639915704727173 2.21191549301147461 -1.10943841934204102 0.290284812450408936 0 0.956940293312072754
-0.404208064079284668 1.67659950256347656 -1.1253434419631958 0.290284812450408936 0 0.956940293312072754
-0.333569347858428955 1.63115668296813965 -1.14677143096923828 0.290284812450408936 0 0.956940293312072754
-0.457010537385940552 2.71667742729187012 -1.10932600498199463 0.290284812450408936 0 0.956940293312072754
-0.457856208086013794 1.62244105339050293 -1.10906946659088135 0.290284812450408936 0 0.956940293312072754
-0.413545489311218262 0.562029123306274414 -1.12251091003417969 0.290284812450408936 0 0.956940293312072754
-0.359948098659515381 0.924737691879272461 -1.13876962661743164 0.290284812450408936 0 0.956940293312072754
-0.438192695379257202 1.38364648818969727 -1.11503434181213379 0.290284812450408936 0 0.956940293312072754
-0.370910942554473877 1.83432936668395996 -1.1354440450668335 0.290284812450408936 0 0.956940293312072754
-0.256872743368148804 0.048869989812374115 -1.17003715038299561 0.290284812450408936 0 0.956940293312072754
-0.458540827035903931 2.89357829093933105 -1.10886180400848389 0.290284812450408936 0 0.956940293312072754
-0.410426318645477295 1.03666210174560547 -1.12345719337463379 0.290284812450408936 0 0.956940293312072754
-0.41383776068687439 1.32237124443054199 -1.12242233753204346 0.290284812450408936 0 0.956940293312072754
-0.456195831298828125 1.67559671401977539 -1.1095731258392334 0.290284812450408936 0 0.956940293312072754
-0.333509474992752075 1.01567935943603516 -1.14678966999053955 0.290284812450408936 0 0.956940293312072754
-0.287350356578826904 0.710162818431854248 -1.16079187393188477 0.290284812450408936 0 0.956940293312072754
-0.352913171052932739 0.630406618118286133 -1.14090359210968018 0.290284812450408936 0 0.956940293312072754
-0.297380745410919189 0.460431545972824097 -1.15774917602539062 0.290284812450408936 0 0.956940293312072754
-0.267666876316070557 0.299549996852874756 -1.1667628288269043 0.290284812450408936 0 0.956940293312072754
-0.415592819452285767 3.0370633602142334 -1.12188994884490967 0.290284812450408936 0 0.956940293312072754
-0.435744792222976685 2.66080331802368164 -1.11577689647674561 0.290284812450408936 0 0.956940293312072754
-0.384677320718765259 0.00328233512118458748 -1.13126802444458008 0.290284812450408936 0 0.956940293312072754
-0.456692874431610107 1.75715756416320801 -1.10942232608795166 0.290284812450408936 0 0.956940293312072754
-0.323432326316833496 0.414763301610946655 -1.14984655380249023 0.290284812450408936 0 0.956940293312072754
-0.35542142391204834 0.13891012966632843 -1.14014267921447754 0.290284812450408936 0 0.956940293312072754
-0.405822068452835083 0.290580511093139648 -1.12485384941101074 0.290284812450408936 0 0.956940293312072754
-0.264722138643264771 0.499532788991928101 -1.1676560640335083 0.290284812450408936 0 0.956940293312072754
-0.358609288930892944 0.707193672657012939 -1.1391756534576416 0.290284812450408936 0 0.956940293312072754
-0.320256024599075317 1.36934483051300049 -1.15081000328063965 0.290284812450408936 0 0.956940293312072754
-0.386234313249588013 2.2901921272277832 -1.13079571723937988 0.290284812450408936 0 0.956940293312072754
-0.446988523006439209 0.871631622314453125 -1.11236608028411865 0.290284812450408936 0 0.956940293312072754
-0.385184824466705322 2.06905221939086914 -1.13111412525177002 0.290284812450408936 0 0.956940293312072754
-0.37440916895866394 0.788142144680023193 -1.13438284397125244 0.290284812450408936 0 0.956940293312072754
-0.404324799776077271 2.78598690032958984 -1.12530803680419922 0.290284812450408936 0 0.956940293312072754
-0.435919821262359619 1.08301448822021484 -1.11572372913360596 0.290284812450408936 0 0.956940293312072754
-0.366502165794372559 1.35689079761505127 -1.13678145408630371 0.290284812450408936 0 0.956940293312072754
-0.336351692676544189 0.00810602307319641113 -1.14592742919921875 0.290284812450408936 0 0.956940293312072754
-0.383666038513183594 1.09473848342895508 -1.13157474994659424 0.290284812450408936 0 0.956940293312072754
-0.411844193935394287 1.13944458961486816 -1.12302708625793457 0.290284812450408936 0 0.956940293312072754
-0.424791544675827026 0.234285950660705566 -1.11909949779510498 0.290284812450408936 0 0.956940293312072754
-0.421479851007461548 2.86126303672790527 -1.12010407447814941 0.290284812450408936 0 0.956940293312072754
-0.302542448043823242 0.04588303342461586 -1.15618336200714111 0.290284812450408936 0 0.956940293312072754
-0.406513303518295288 2.11569499969482422 -1.12464416027069092 0.290284812450408936 0 0.956940293312072754
-0.419174820184707642 1.79460084438323975 -1.1208033561706543 0.290284812450408936 0 0.956940293312072754
-0.359532088041305542 1.89137876033782959 -1.13889575004577637 0.290284812450408936 0 0.956940293312072754
-0.413054972887039185 2.03112936019897461 -1.12265980243682861 0.290284812450408936 0 0.956940293312072754
-0.322480916976928711 0.559151291847229004 -1.15013515949249268 0.290284812450408936 0 0.956940293312072754
-0.274880737066268921 0.231006652116775513 -1.16457450389862061 0.290284812450408936 0 0.956940293312072754
-0.393877923488616943 2.5987544059753418 -1.12847709655761719 0.290284812450408936 0 0.956940293312072754
-0.427556395530700684 3.40082120895385742 -1.11826074123382568 0.290284812450408936 0 0.956940293312072754
-0.284879535436630249 0.354935050010681152 -1.16154134273529053 0.290284812450408936 0 0.956940293312072754
-0.342544347047805786 0.293435364961624146 -1.14404892921447754 0.290284812450408936 0 0.956940293312072754
-0.288543790578842163 0.612292230129241943 -1.16042983531951904 0.290284812450408936 0 0.956940293312072754
-0.305502533912658691 0.790767252445220947 -1.15528547763824463 0.290284812450408936 0 0.956940293312072754
-0.36615598201751709 1.51873767375946045 -1.13688647747039795 0.290284812450408936 0 0.956940293312072754
-0.441617220640182495 2.27092838287353516 -1.11399543285369873 0.290284812450408936 0 0.956940293312072754
-0.359503239393234253 0.455529898405075073 -1.13890457153320312 0.290284812450408936 0 0.956940293312072754
-0.319539308547973633 1.46481144428253174 -1.15102744102478027 0.290284812450408936 0 0.956940293312072754
-0.260611593723297119 0.568292200565338135 -1.16890299320220947 0.290284812450408936 -0 0.956940293312072754
-0.2777385413646698 2.24996161460876465 -1.16370761394500732 0.290284812450408936 -0 0.956940293312072754
-0.270877301692962646 1.76985049247741699 -1.16578888893127441 0.290284812450408936 -0 0.956940293312072754
-0.355373024940490723 2.46514606475830078 -1.14015734195709229 0.290284812450408936 -0 0.956940293312072754
-0.37366214394569397 3.36720705032348633 -1.13460946083068848 0.290284812450408936 -0 0.956940293312072754
-0.242380395531654358 3.35742282867431641 -1.17443335056304932 0.290284812450408936 -0 0.956940293312072754
-0.364717662334442139 3.47680115699768066 -1.13732278347015381 0.290284812450408936 -0 0.956940293312072754
-0.315979182720184326 3.6872096061706543 -1.1521073579788208 0.290284812450408936 -0 0.956940293312072754
-0.256330370903015137 3.72971272468566895 -1.17020165920257568 0.290284812450408936 -0 0.956940293312072754
-0.293666481971740723 2.92302465438842773 -1.15887582302093506 0.290284812450408936 -0 0.956940293312072754
-0.246911585330963135 1.29062223434448242 -1.17305886745452881 0.290284812450408936 -0 0.956940293312072754
-0.285247772932052612 2.19949626922607422 -1.16142964363098145 0.290284812450408936 -0 0.956940293312072754
-0.426246464252471924 3.64683723449707031 -1.11865818500518799 0.290284812450408936 -0 0.956940293312072754
-0.29660370945930481 3.11450576782226562 -1.15798485279083252 0.290284812450408936 -0 0.956940293312072754
-0.299043118953704834 3.64046549797058105 -1.15724492073059082 0.290284812450408936 -0 0.956940293312072754
-0.266810804605484009 3.0804741382598877 -1.1670224666595459 0.290284812450408936 -0 0.956940293312072754
-0.309974938631057739 3.19327425956726074 -1.15392875671386719 0.290284812450408936 -0 0.956940293312072754
-0.376523405313491821 3.77017831802368164 -1.13374149799346924 0.290284812450408936 -0 0.956940293312072754
-0.291443318128585815 2.38741803169250488 -1.15955030918121338 0.290284812450408936 -0 0.956940293312072754
-0.24575217068195343 3.81197261810302734 -1.17341053485870361 0.290284812450408936 -0 0.956940293312072754
-0.251188755035400391 2.31854128837585449 -1.17176139354705811 0.290284812450408936 -0 0.956940293312072754
-0.365183264017105103 2.55991649627685547 -1.13718152046203613 0.290284812450408936 -0 0.956940293312072754
-0.286184847354888916 3.00830888748168945 -1.16114544868469238 0.290284812450408936 -0 0.956940293312072754
-0.304433703422546387 1.30697870254516602 -1.15560972690582275 0.290284812450408936 -0 0.956940293312072754
-0.350305944681167603 3.62929296493530273 -1.14169442653656006 0.290284812450408936 -0 0.956940293312072754
-0.3213634192943573 3.38442277908325195 -1.15047407150268555 0.290284812450408936 -0 0.956940293312072754
-0.246225073933601379 0.662837326526641846 -1.17326712608337402 0.290284812450408936 -0 0.956940293312072754
-0.378221571445465088 3.08122372627258301 -1.13322639465332031 0.290284812450408936 -0 0.956940293312072754
-0.2409028559923172 1.92833852767944336 -1.17488157749176025 0.290284812450408936 -0 0.956940293312072754
-0.366371959447860718 3.99021387100219727 -1.13682091236114502 0.290284812450408936 -0 0.956940293312072754
-0.431822538375854492 3.80195832252502441 -1.11696672439575195 0.290284812450408936 -0 0.956940293312072754
-0.2363099604845047 3.44606757164001465 -1.17627477645874023 0.290284812450408936 -0 0.956940293312072754
-0.343069642782211304 2.51254177093505859 -1.14388954639434814 0.290284812450408936 -0 0.956940293312072754
-0.289757043123245239 2.53789854049682617 -1.16006183624267578 0.290284812450408936 -0 0.956940293312072754
-0.408004045486450195 3.91170978546142578 -1.1241919994354248 0.290284812450408936 -0 0.956940293312072754
-0.330172508955001831 1.79777264595031738 -1.14780187606811523 0.290284812450408936 -0 0.956940293312072754
-0.414755731821060181 3.86040210723876953 -1.12214386463165283 0.290284812450408936 -0 0.956940293312072754
-0.336566925048828125 3.94489645957946777 -1.14586222171783447 0.290284812450408936 -0 0.956940293312072754
-0.414682239294052124 3.56102752685546875 -1.12216615676879883 0.290284812450408936 -0 0.956940293312072754
-0.237252280116081238 0.103722982108592987 -1.17598891258239746 0.290284812450408936 -0 0.956940293312072754
-0.28178820013999939 2.6915595531463623 -1.16247916221618652 0.290284812450408936 -0 0.956940293312072754
-0.27126649022102356 2.15120434761047363 -1.16567087173461914 0.290284812450408936 -0 0.956940293312072754
-0.272059708833694458 2.09746670722961426 -1.16543018817901611 0.290284812450408936 -0 0.956940293312072754
-0.295043081045150757 1.97088134288787842 -1.15845835208892822 0.290284812450408936 -0 0.956940293312072754
-0.418837547302246094 3.45549631118774414 -1.12090563774108887 0.290284812450408936 -0 0.956940293312072754
-0.330909192562103271 2.19815659523010254 -1.14757847785949707 0.290284812450408936 -0 0.956940293312072754
-0.32643359899520874 2.76938796043395996 -1.14893603324890137 0.290284812450408936 -0 0.956940293312072754
-0.340686589479446411 2.4170382022857666 -1.14461243152618408 0.290284812450408936 -0 0.956940293312072754
-0.249783247709274292 2.42258119583129883 -1.1721876859664917 0.290284812450408936 -0 0.956940293312072754
-0.414389222860336304 3.23505473136901855 -1.12225496768951416 0.290284812450408936 -0 0.956940293312072754
-0.282654821872711182 0.93534553050994873 -1.1622161865234375 0.290284812450408936 -0 0.956940293312072754
-0.290593534708023071 3.24837279319763184 -1.15980803966522217 0.290284812450408936 -0 0.956940293312072754
-0.271190673112869263 3.52859687805175781 -1.16569387912750244 0.290284812450408936 -0 0.956940293312072754
-0.302648097276687622 1.71885406970977783 -1.15615129470825195 0.290284812450408936 -0 0.956940293312072754
-0.237095907330513 0.262278497219085693 -1.17603635787963867 0.290284812450408936 -0 0.956940293312072754
-0.306914091110229492 2.58373355865478516 -1.15485727787017822 0.290284812450408936 -0 0.956940293312072754
-0.368857532739639282 3.27756762504577637 -1.13606691360473633 0.290284812450408936 -0 0.956940293312072754
-0.333427935838699341 2.70511412620544434 -1.14681434631347656 0.290284812450408936 -0 0.956940293312072754
-0.387016326189041138 2.91343212127685547 -1.13055849075317383 0.290284812450408936 -0 0.956940293312072754
-0.361494064331054688 2.81663990020751953 -1.13830065727233887 0.290284812450408936 -0 0.956940293312072754
-0.249373793601989746 2.86902308464050293 -1.17231190204620361 0.290284812450408936 -0 0.956940293312072754
-0.355067551136016846 2.23907589912414551 -1.14025008678436279 0.290284812450408936 -0 0.956940293312072754
