ply
format ascii 1.0
element vertex 911
property float x
property float y
property float z
property float nx
property float ny
property float nz
end_header
1 3.65608811378479004 0.0764539763331413269 -1 -0 0
1 2.17457079887390137 0.564239859580993652 -1 -0 0
1 3.3699946403503418 -0.530596733093261719 -1 -0 0
1 3.72558259963989258 -0.346161216497421265 -1 -0 0
1 3.6718752384185791 0.655721127986907959 -1 -0 0
1 2.83431673049926758 0.587511122226715088 -1 -0 0
1 3.95877790451049805 -0.938746511936187744 -1 -0 0
1 1.67629408836364746 0.545625030994415283 -1 -0 0
1 1.78869128227233887 0.98699110746383667 -1 -0 0
1 3.95094537734985352 0.522959768772125244 -1 -0 0
1 3.80135011672973633 -0.28256574273109436 -1 -0 0
1 3.01051950454711914 0.936387360095977783 -1 -0 0
1 2.40630125999450684 0.912764072418212891 -1 -0 0
1 1.69563114643096924 0.966197013854980469 -1 -0 0
1 2.77378654479980469 0.592675983905792236 -1 -0 0
1 3.24659085273742676 -0.480044037103652954 -1 -0 0
1 3.81713533401489258 0.610499143600463867 -1 -0 0
1 2.24519467353820801 0.390508025884628296 -1 -0 0
1 2.07137155532836914 0.563640713691711426 -1 -0 0
1 3.89988231658935547 -0.00948858167976140976 -1 -0 0
1 2.39771318435668945 0.303101688623428345 -1 -0 0
1 3.3970801830291748 -0.139572381973266602 -1 -0 0
1 1.76374232769012451 0.783865749835968018 -1 -0 0
1 1.60484075546264648 0.744211196899414062 -1 -0 0
1 3.18113446235656738 -0.4151439368724823 -1 -0 0
1 3.52780985832214355 -0.138503879308700562 -1 -0 0
1 2.7513279914855957 0.0427165590226650238 -1 -0 0
1 2.9098360538482666 0.950712621212005615 -1 -0 0
1 3.36768937110900879 -0.286425143480300903 -1 -0 0
1 2.98367142677307129 0.274095028638839722 -1 -0 0
1 1.72145581245422363 0.89179694652557373 -1 -0 0
1 2.61238002777099609 -0.101530946791172028 -1 -0 0
1 3.6148226261138916 -0.538360595703125 -1 -0 0
1 2.66610264778137207 0.999616444110870361 -1 -0 0
1 2.55761623382568359 -0.10583728551864624 -1 -0 0
1 3.93595671653747559 0.236112907528877258 -1 -0 0
1 1.4122922420501709 0.825484871864318848 -1 -0 0
1 3.75975847244262695 0.246368378400802612 -1 -0 0
1 2.40206623077392578 0.718265712261199951 -1 -0 0
1 0.738048553466796875 0.903764426708221436 -1 -0 0
1 3.8897252082824707 0.134651228785514832 -1 -0 0
1 2.83125424385070801 0.245398223400115967 -1 -0 0
1 1.8305586576461792 0.683954715728759766 -1 -0 0
1 2.31565642356872559 0.491315245628356934 -1 -0 0
1 2.24178647994995117 0.28946802020072937 -1 -0 0
1 2.24315857887268066 0.229830428957939148 -1 -0 0
1 3.3809354305267334 0.878767311573028564 -1 -0 0
1 2.95798492431640625 0.91956716775894165 -1 -0 0
1 2.94260883331298828 0.223803475499153137 -1 -0 0
1 2.84067440032958984 0.331723421812057495 -1 -0 0
1 1.79222261905670166 0.634344577789306641 -1 -0 0
1 3.66287517547607422 -0.104357585310935974 -1 -0 0
1 2.48339509963989258 0.348844379186630249 -1 -0 0
1 3.70999789237976074 -0.700588643550872803 -1 -0 0
1 1.06124377250671387 0.951635837554931641 -1 -0 0
1 2.76828932762145996 -0.212582260370254517 -1 -0 0
1 3.2539520263671875 0.289392709732055664 -1 -0 0
1 1.89322125911712646 0.244079500436782837 -1 -0 0
1 3.19269776344299316 -0.474131584167480469 -1 -0 0
1 2.77960324287414551 0.526019930839538574 -1 -0 0
1 2.2800750732421875 0.961224794387817383 -1 -0 0
1 1.54085743427276611 0.596577346324920654 -1 -0 0
1 2.88844418525695801 0.863757789134979248 -1 -0 0
1 3.94625568389892578 0.679038405418395996 -1 -0 0
1 3.39326381683349609 0.979248762130737305 -1 -0 0
1 3.3486630916595459 -0.138013049960136414 -1 -0 0
1 3.56728601455688477 0.0932111591100692749 -1 -0 0
1 2.62720441818237305 0.960410594940185547 -1 -0 0
1 0.775782108306884766 0.942538321018218994 -1 -0 0
1 2.85028266906738281 0.734765529632568359 -1 -0 0
1 2.00971460342407227 0.266893535852432251 -1 -0 0
1 2.64510250091552734 -0.191611960530281067 -1 -0 0
1 0.992768406867980957 0.982903718948364258 -1 -0 0
1 3.16486907005310059 0.0417038463056087494 -1 -0 0
1 2.50758981704711914 -0.081615641713142395 -1 -0 0
1 1.03015720844268799 0.78455585241317749 -1 -0 0
1 3.04516458511352539 0.877031922340393066 -1 -0 0
1 3.80549287796020508 -0.773063123226165771 -1 -0 0
1 2.02909708023071289 0.317086964845657349 -1 -0 0
1 2.74297237396240234 0.910836398601531982 -1 -0 0
1 3.42603778839111328 0.305823415517807007 -1 -0 0
1 3.20590376853942871 0.312917798757553101 -1 -0 0
1 1.23764228820800781 0.698024928569793701 -1 -0 0
1 2.77971792221069336 -0.131281465291976929 -1 -0 0
1 3.9219965934753418 0.316731125116348267 -1 -0 0
1 3.43223357200622559 -0.0338011644780635834 -1 -0 0
1 3.21980547904968262 0.984968781471252441 -1 -0 0
1 2.93483638763427734 -0.328935444355010986 -1 -0 0
1 3.35230541229248047 0.328593432903289795 -1 -0 0
1 1.21855795383453369 0.969309687614440918 -1 -0 0
1 3.53564620018005371 -0.594280540943145752 -1 -0 0
1 3.56755757331848145 0.481544733047485352 -1 -0 0
1 2.80263304710388184 0.051598377525806427 -1 -0 0
1 1.99298775196075439 0.77327805757522583 -1 -0 0
1 3.86909770965576172 -0.0474533401429653168 -1 -0 0
1 3.63803863525390625 0.241207242012023926 -1 -0 0
1 2.04453349113464355 0.190291881561279297 -1 -0 0
1 3.99675321578979492 -0.82379913330078125 -1 -0 0
1 3.81969046592712402 0.0238529518246650696 -1 -0 0
1 3.13285112380981445 0.493154525756835938 -1 -0 0
1 1.86244630813598633 0.744421124458312988 -1 -0 0
1 2.03823423385620117 0.836147308349609375 -1 -0 0
1 3.69234991073608398 0.584252476692199707 -1 -0 0
1 1.66491019725799561 0.924406528472900391 -1 -0 0
1 3.93669247627258301 0.767436683177947998 -1 -0 0
1 3.37332510948181152 0.0966059789061546326 -1 -0 0
1 3.30678558349609375 0.325787246227264404 -1 -0 0
1 2.64478802680969238 0.686481237411499023 -1 -0 0
1 3.96839785575866699 -0.662502169609069824 -1 -0 0
1 2.15527701377868652 0.628374457359313965 -1 -0 0
1 3.54605960845947266 0.955612838268280029 -1 -0 0
1 2.96313762664794922 0.505067765712738037 -1 -0 0
1 2.56508302688598633 0.0246490947902202606 -1 -0 0
1 1.2823110818862915 0.849589049816131592 -1 -0 0
1 3.23719096183776855 0.824907541275024414 -1 -0 0
1 1.4145435094833374 0.726989865303039551 -1 -0 0
1 3.85149860382080078 -0.464690208435058594 -1 -0 0
1 3.90960431098937988 -0.0723783895373344421 -1 -0 0
1 2.7155756950378418 0.519253075122833252 -1 -0 0
1 2.11327481269836426 0.440329134464263916 -1 -0 0
1 2.75724220275878906 0.352184265851974487 -1 -0 0
1 3.58353304862976074 0.669497907161712646 -1 -0 0
1 3.57915639877319336 0.551656782627105713 -1 -0 0
1 3.83138227462768555 -0.562635719776153564 -1 -0 0
1 3.51138687133789062 -0.0549704693257808685 -1 -0 0
1 3.44017672538757324 0.204783916473388672 -1 -0 0
1 3.65991997718811035 -0.672952830791473389 -1 -0 0
1 2.64510250091552734 0.762242138385772705 -1 -0 0
1 2.40970325469970703 0.812450945377349854 -1 -0 0
1 3.66953873634338379 -0.623898804187774658 -1 -0 0
1 3.65618300437927246 -0.182019755244255066 -1 -0 0
1 3.05920648574829102 0.70218127965927124 -1 -0 0
1 3.82366776466369629 -0.875921010971069336 -1 -0 0
1 3.83482599258422852 0.763353109359741211 -1 -0 0
1 3.6969749927520752 0.437049418687820435 -1 -0 0
1 2.32314682006835938 0.845366716384887695 -1 -0 0
1 3.09244227409362793 0.0509046725928783417 -1 -0 0
1 3.31642723083496094 -0.533107519149780273 -1 -0 0
1 3.3163297176361084 -0.391056269407272339 -1 -0 0
1 2.91298604011535645 0.496403783559799194 -1 -0 0
1 3.70950174331665039 0.171274438500404358 -1 -0 0
1 1.06570351123809814 0.750288724899291992 -1 -0 0
1 2.72185873985290527 0.578835189342498779 -1 -0 0
1 3.75897026062011719 0.886884152889251709 -1 -0 0
1 3.52066445350646973 0.843682289123535156 -1 -0 0
1 3.76118993759155273 0.376712709665298462 -1 -0 0
1 3.98151397705078125 -0.746030092239379883 -1 -0 0
1 3.74293160438537598 -0.150687932968139648 -1 -0 0
1 2.16658878326416016 0.381382554769515991 -1 -0 0
1 1.7020334005355835 0.758338570594787598 -1 -0 0
1 2.6534583568572998 0.314451158046722412 -1 -0 0
1 3.24478697776794434 -0.00973853748291730881 -1 -0 0
1 2.43919134140014648 0.0328380651772022247 -1 -0 0
1 3.62436938285827637 -0.220527932047843933 -1 -0 0
1 2.56857085227966309 -0.0546385385096073151 -1 -0 0
1 3.96121001243591309 0.162585049867630005 -1 -0 0
1 1.97971737384796143 0.917387664318084717 -1 -0 0
1 3.02655243873596191 0.502792179584503174 -1 -0 0
1 3.27243518829345703 -0.274905860424041748 -1 -0 0
1 2.75081348419189453 0.692962288856506348 -1 -0 0
1 3.1955878734588623 0.791244447231292725 -1 -0 0
1 3.78419804573059082 -0.39794507622718811 -1 -0 0
1 1.83355367183685303 0.967035830020904541 -1 -0 0
1 1.94407951831817627 0.476086467504501343 -1 -0 0
1 2.81257939338684082 -0.195871472358703613 -1 -0 0
1 2.57637906074523926 0.415299385786056519 -1 -0 0
1 3.30882430076599121 0.584001302719116211 -1 -0 0
1 1.80773508548736572 0.582822203636169434 -1 -0 0
1 1.97269022464752197 0.311705142259597778 -1 -0 0
1 2.52432107925415039 0.571291863918304443 -1 -0 0
1 2.98257231712341309 0.719366073608398438 -1 -0 0
1 3.0982973575592041 0.310210108757019043 -1 -0 0
1 3.29461812973022461 0.247163936495780945 -1 -0 0
1 3.68383407592773438 -0.244872987270355225 -1 -0 0
1 3.2934107780456543 0.914258301258087158 -1 -0 0
1 3.08389449119567871 -0.269576698541641235 -1 -0 0
1 1.83504903316497803 0.861262798309326172 -1 -0 0
1 2.2895665168762207 0.412693411111831665 -1 -0 0
1 3.1852877140045166 -0.0745969414710998535 -1 -0 0
1 2.60806012153625488 0.303379714488983154 -1 -0 0
1 2.12668347358703613 0.992000341415405273 -1 -0 0
1 3.56966900825500488 -0.483045190572738647 -1 -0 0
1 3.04728078842163086 0.552375495433807373 -1 -0 0
1 3.12267231941223145 0.857382059097290039 -1 -0 0
1 3.98544573783874512 -0.320290058851242065 -1 -0 0
1 3.88138389587402344 -0.291047394275665283 -1 -0 0
1 2.8493194580078125 -0.253153771162033081 -1 -0 0
1 3.632781982421875 -0.409116238355636597 -1 -0 0
1 3.40433669090270996 0.621985733509063721 -1 -0 0
1 2.55576157569885254 0.329497009515762329 -1 -0 0
1 2.25608706474304199 0.766551434993743896 -1 -0 0
1 2.70340514183044434 0.00512489490211009979 -1 -0 0
1 3.77344775199890137 0.42925715446472168 -1 -0 0
1 3.33178830146789551 0.481395810842514038 -1 -0 0
1 2.51606011390686035 0.432214736938476562 -1 -0 0
1 3.82982373237609863 0.196763038635253906 -1 -0 0
1 3.02326273918151855 0.226920366287231445 -1 -0 0
1 2.29597163200378418 0.179970711469650269 -1 -0 0
1 3.0382239818572998 -0.121175706386566162 -1 -0 0
1 2.66047549247741699 0.427041023969650269 -1 -0 0
1 1.960418701171875 0.415212363004684448 -1 -0 0
1 3.34736180305480957 0.931109607219696045 -1 -0 0
1 1.67881548404693604 0.419893503189086914 -1 -0 0
1 3.0267174243927002 -0.00346640869975090027 -1 -0 0
1 3.94086337089538574 -0.873107016086578369 -1 -0 0
1 3.49876022338867188 0.258430272340774536 -1 -0 0
1 2.08001065254211426 0.970524013042449951 -1 -0 0
1 3.88256096839904785 0.255154848098754883 -1 -0 0
1 2.36395883560180664 0.553412020206451416 -1 -0 0
1 3.67486047744750977 -0.740159690380096436 -1 -0 0
1 3.01483273506164551 0.162526711821556091 -1 -0 0
1 3.18020391464233398 0.451808959245681763 -1 -0 0
1 3.77165746688842773 -0.699073195457458496 -1 -0 0
1 1.90426516532897949 0.381805777549743652 -1 -0 0
1 2.12022638320922852 0.232236802577972412 -1 -0 0
1 2.23572492599487305 0.931317508220672607 -1 -0 0
1 3.44912481307983398 -0.669597864151000977 -1 -0 0
1 3.74869322776794434 0.318941384553909302 -1 -0 0
1 3.42741751670837402 -0.616182208061218262 -1 -0 0
1 3.80380105972290039 0.801621437072753906 -1 -0 0
1 3.51702141761779785 -0.717061877250671387 -1 -0 0
1 3.73464608192443848 0.469843536615371704 -1 -0 0
1 1.54604673385620117 0.853896141052246094 -1 -0 0
1 2.74571490287780762 0.633938491344451904 -1 -0 0
1 1.50009024143218994 0.514226019382476807 -1 -0 0
1 2.17882823944091797 0.47957119345664978 -1 -0 0
1 1.18249237537384033 0.831663072109222412 -1 -0 0
1 2.91905331611633301 0.693107068538665771 -1 -0 0
1 3.66031718254089355 0.140070527791976929 -1 -0 0
1 2.23969864845275879 0.881049215793609619 -1 -0 0
1 3.74835944175720215 -0.516173660755157471 -1 -0 0
1 1.96087038516998291 0.215994760394096375 -1 -0 0
1 3.88744592666625977 -0.519115149974822998 -1 -0 0
1 2.88197851181030273 0.584015607833862305 -1 -0 0
1 1.51037991046905518 0.684690237045288086 -1 -0 0
1 2.3427119255065918 0.78549492359161377 -1 -0 0
1 3.93826150894165039 0.114493109285831451 -1 -0 0
1 2.89345908164978027 0.240139633417129517 -1 -0 0
1 3.25389838218688965 -0.552743077278137207 -1 -0 0
1 1.10037422180175781 0.898562967777252197 -1 -0 0
1 2.9291541576385498 0.551438093185424805 -1 -0 0
1 3.07400059700012207 0.624540150165557861 -1 -0 0
1 3.48058748245239258 -0.402714818716049194 -1 -0 0
1 3.31571722030639648 0.721755504608154297 -1 -0 0
1 1.84197080135345459 0.636015057563781738 -1 -0 0
1 2.89600563049316406 -0.136429756879806519 -1 -0 0
1 3.14536690711975098 0.653447389602661133 -1 -0 0
1 3.29177331924438477 0.975751042366027832 -1 -0 0
1 1.97413647174835205 0.730445384979248047 -1 -0 0
1 2.64791178703308105 -0.0448232404887676239 -1 -0 0
1 2.34087896347045898 0.215973183512687683 -1 -0 0
1 3.62389826774597168 0.834886252880096436 -1 -0 0
1 1.61376953125 0.947220385074615479 -1 -0 0
1 3.15912175178527832 0.728383243083953857 -1 -0 0
1 1.77859067916870117 0.882677435874938965 -1 -0 0
1 3.11709976196289062 0.0055333930067718029 -1 -0 0
1 2.94350481033325195 0.103834673762321472 -1 -0 0
1 3.49270415306091309 -0.564064145088195801 -1 -0 0
1 1.33138704299926758 0.696182012557983398 -1 -0 0
1 1.83029890060424805 0.29227176308631897 -1 -0 0
1 2.78012490272521973 0.187429368495941162 -1 -0 0
1 1.65992081165313721 0.71529090404510498 -1 -0 0
1 3.49355578422546387 -0.631653666496276855 -1 -0 0
1 1.2419426441192627 0.910341322422027588 -1 -0 0
1 3.61014342308044434 -0.69350123405456543 -1 -0 0
1 1.2893376350402832 0.923765718936920166 -1 -0 0
-0.0482912734150886536 0.332753688097000122 1 -0 -0 -1
0.810296297073364258 0.754327833652496338 1 -0 -0 -1
-0.941127896308898926 3.50597715377807617 1 -0 -0 -1
-0.305516362190246582 1.14774191379547119 1 -0 -0 -1
-0.596562743186950684 2.98127007484436035 1 -0 -0 -1
0.45872613787651062 1.07265615463256836 1 -0 -0 -1
-0.385874062776565552 0.540527999401092529 1 -0 -0 -1
-0.609226226806640625 1.18913078308105469 1 -0 -0 -1
0.519119799137115479 0.538103640079498291 1 -0 -0 -1
-0.0968364551663398743 1.14624428749084473 1 -0 -0 -1
-0.528557837009429932 2.58050084114074707 1 -0 -0 -1
-0.668003082275390625 2.86851072311401367 1 -0 -0 -1
-0.959930717945098877 0.0102717708796262741 1 -0 -0 -1
-0.537303745746612549 0.752223551273345947 1 -0 -0 -1
-0.280527085065841675 2.63312196731567383 1 -0 -0 -1
-0.608946800231933594 2.64770793914794922 1 -0 -0 -1
-0.728782236576080322 0.127719104290008545 1 -0 -0 -1
-0.141870439052581787 0.996930539608001709 1 -0 -0 -1
-0.800106644630432129 1.31025254726409912 1 -0 -0 -1
-0.803059935569763184 2.71009993553161621 1 -0 -0 -1
-0.847464799880981445 1.38384318351745605 1 -0 -0 -1
-0.495589345693588257 2.09104323387145996 1 -0 -0 -1
0.42853391170501709 0.712499380111694336 1 -0 -0 -1
0.148866713047027588 0.504069328308105469 1 -0 -0 -1
-0.934534430503845215 2.37723803520202637 1 -0 -0 -1
0.251768350601196289 1.71347558498382568 1 -0 -0 -1
-0.734584689140319824 2.04665207862854004 1 -0 -0 -1
0.405120760202407837 0.813107132911682129 1 -0 -0 -1
-0.689331471920013428 2.82576298713684082 1 -0 -0 -1
0.905511677265167236 0.63196265697479248 1 -0 -0 -1
0.152384519577026367 0.929253280162811279 1 -0 -0 -1
-0.759125888347625732 2.97214055061340332 1 -0 -0 -1
0.341673344373703003 1.01870429515838623 1 -0 -0 -1
-0.725152254104614258 3.31451511383056641 1 -0 -0 -1
0.117376841604709625 1.79114937782287598 1 -0 -0 -1
0.30958932638168335 1.67364692687988281 1 -0 -0 -1
-0.589231610298156738 2.79544353485107422 1 -0 -0 -1
-0.55954444408416748 3.19408321380615234 1 -0 -0 -1
0.199980199337005615 0.951949954032897949 1 -0 -0 -1
0.417629390954971313 1.21695363521575928 1 -0 -0 -1
-0.783547580242156982 3.01828765869140625 1 -0 -0 -1
0.068249240517616272 1.21447718143463135 1 -0 -0 -1
-0.903462588787078857 1.60136520862579346 1 -0 -0 -1
-0.229132220149040222 1.59312856197357178 1 -0 -0 -1
-0.216153189539909363 0.823747038841247559 1 -0 -0 -1
-0.782064676284790039 1.46465694904327393 1 -0 -0 -1
0.00156134180724620819 0.875338554382324219 1 -0 -0 -1
0.0323889479041099548 1.53339183330535889 1 -0 -0 -1
-0.394577056169509888 2.20677042007446289 1 -0 -0 -1
-0.485301852226257324 1.44959211349487305 1 -0 -0 -1
0.751590192317962646 0.7928810715675354 1 -0 -0 -1
0.133629739284515381 0.386903643608093262 1 -0 -0 -1
-0.0283508729189634323 2.13646030426025391 1 -0 -0 -1
0.0146474223583936691 0.824034512042999268 1 -0 -0 -1
-0.542166829109191895 1.90690422058105469 1 -0 -0 -1
-0.701433062553405762 3.17520475387573242 1 -0 -0 -1
-0.983945488929748535 1.23020076751708984 1 -0 -0 -1
-0.402254551649093628 1.17757940292358398 1 -0 -0 -1
-0.670750617980957031 2.9198758602142334 1 -0 -0 -1
-0.584465563297271729 2.84884023666381836 1 -0 -0 -1
-0.494670122861862183 1.16957128047943115 1 -0 -0 -1
0.42329367995262146 0.540335893630981445 1 -0 -0 -1
-0.634288430213928223 2.39927172660827637 1 -0 -0 -1
-0.916125953197479248 0.970719397068023682 1 -0 -0 -1
-0.697282075881958008 0.203703358769416809 1 -0 -0 -1
0.743689537048339844 0.649031162261962891 1 -0 -0 -1
-0.959847927093505859 0.65891420841217041 1 -0 -0 -1
0.0328204520046710968 1.43961608409881592 1 -0 -0 -1
-0.0491971001029014587 1.97626864910125732 1 -0 -0 -1
-0.174655094742774963 1.76139974594116211 1 -0 -0 -1
-0.296112924814224243 2.10218310356140137 1 -0 -0 -1
-0.778770923614501953 3.51741886138916016 1 -0 -0 -1
-0.817033469676971436 0.896590173244476318 1 -0 -0 -1
0.568557143211364746 0.467043817043304443 1 -0 -0 -1
0.0472598634660243988 1.09443271160125732 1 -0 -0 -1
0.154172852635383606 1.71672725677490234 1 -0 -0 -1
-0.388787209987640381 2.81692314147949219 1 -0 -0 -1
-0.915571391582489014 0.917425036430358887 1 -0 -0 -1
-0.440535545349121094 1.42558944225311279 1 -0 -0 -1
-0.967360794544219971 0.433080077171325684 1 -0 -0 -1
-0.229748725891113281 0.419317126274108887 1 -0 -0 -1
-0.438897669315338135 1.13866770267486572 1 -0 -0 -1
-0.429761648178100586 0.570353806018829346 1 -0 -0 -1
-0.212740406394004822 1.92638266086578369 1 -0 -0 -1
0.0924541130661964417 1.58764636516571045 1 -0 -0 -1
-0.458211213350296021 2.15385866165161133 1 -0 -0 -1
-0.539094328880310059 0.335189670324325562 1 -0 -0 -1
-0.117395676672458649 1.70256543159484863 1 -0 -0 -1
-0.073672369122505188 1.71966826915740967 1 -0 -0 -1
-0.351212412118911743 1.74622976779937744 1 -0 -0 -1
-0.849419057369232178 2.85623359680175781 1 -0 -0 -1
-0.0277208033949136734 1.63305997848510742 1 -0 -0 -1
0.272049158811569214 1.09455728530883789 1 -0 -0 -1
-0.946619749069213867 0.726026177406311035 1 -0 -0 -1
-0.349316239356994629 2.03101491928100586 1 -0 -0 -1
0.0307623427361249924 1.29814648628234863 1 -0 -0 -1
-0.873043179512023926 3.54812049865722656 1 -0 -0 -1
0.800822317600250244 0.49240228533744812 1 -0 -0 -1
0.109567470848560333 1.93308699131011963 1 -0 -0 -1
0.922644972801208496 0.49729648232460022 1 -0 -0 -1
-0.927537262439727783 2.86099028587341309 1 -0 -0 -1
-0.366285353899002075 0.304433256387710571 1 -0 -0 -1
-0.409566193819046021 2.66836738586425781 1 -0 -0 -1
-0.715972661972045898 2.95475435256958008 1 -0 -0 -1
-0.859157681465148926 0.379811286926269531 1 -0 -0 -1
-0.94266277551651001 0.321776211261749268 1 -0 -0 -1
0.114399492740631104 1.05829870700836182 1 -0 -0 -1
-0.292341947555541992 2.02620792388916016 1 -0 -0 -1
-0.494691967964172363 2.98410892486572266 1 -0 -0 -1
-0.687241017818450928 2.03744721412658691 1 -0 -0 -1
-0.769114136695861816 1.54014241695404053 1 -0 -0 -1
0.158997341990470886 0.985810399055480957 1 -0 -0 -1
0.313771367073059082 0.605659961700439453 1 -0 -0 -1
-0.0454318337142467499 1.17167294025421143 1 -0 -0 -1
-0.504152178764343262 0.550575911998748779 1 -0 -0 -1
-0.890500068664550781 1.72418212890625 1 -0 -0 -1
-0.0726190507411956787 2.22839164733886719 1 -0 -0 -1
-0.569875419139862061 2.45010185241699219 1 -0 -0 -1
-0.29358828067779541 0.488244593143463135 1 -0 -0 -1
0.114481762051582336 0.812331736087799072 1 -0 -0 -1
-0.897732794284820557 1.45321857929229736 1 -0 -0 -1
-0.551669597625732422 1.17900228500366211 1 -0 -0 -1
-0.758750736713409424 1.14139091968536377 1 -0 -0 -1
0.0175826717168092728 2.06701827049255371 1 -0 -0 -1
-0.423321574926376343 2.03445172309875488 1 -0 -0 -1
-0.948454499244689941 3.77020645141601562 1 -0 -0 -1
-0.718749105930328369 1.807533860206604 1 -0 -0 -1
-0.892002403736114502 1.99141156673431396 1 -0 -0 -1
0.298908799886703491 1.59731388092041016 1 -0 -0 -1
-0.344836652278900146 2.58445978164672852 1 -0 -0 -1
0.163864031434059143 1.5779116153717041 1 -0 -0 -1
-0.249831140041351318 1.40566575527191162 1 -0 -0 -1
-0.113318890333175659 0.753638684749603271 1 -0 -0 -1
0.916878581047058105 0.573315203189849854 1 -0 -0 -1
-0.663675785064697266 2.47227716445922852 1 -0 -0 -1
-0.687849819660186768 1.75165581703186035 1 -0 -0 -1
-0.914429008960723877 1.05100822448730469 1 -0 -0 -1
-0.624256670475006104 1.53010678291320801 1 -0 -0 -1
-0.111938022077083588 1.93035829067230225 1 -0 -0 -1
-0.936478495597839355 0.0895524919033050537 1 -0 -0 -1
-0.878858327865600586 3.44509124755859375 1 -0 -0 -1
0.406083405017852783 1.47702574729919434 1 -0 -0 -1
-0.545687317848205566 1.78688704967498779 1 -0 -0 -1
-0.944916307926177979 0.175165459513664246 1 -0 -0 -1
-0.636830687522888184 1.74631762504577637 1 -0 -0 -1
-0.657964348793029785 0.870580136775970459 1 -0 -0 -1
-0.464814633131027222 1.91226410865783691 1 -0 -0 -1
0.19988955557346344 1.88489401340484619 1 -0 -0 -1
-0.106715001165866852 0.910005092620849609 1 -0 -0 -1
-0.979638159275054932 3.18363618850708008 1 -0 -0 -1
-0.977213382720947266 2.10450387001037598 1 -0 -0 -1
-0.955790936946868896 0.553756594657897949 1 -0 -0 -1
-0.79335629940032959 2.10717582702636719 1 -0 -0 -1
-0.0337470546364784241 0.409499406814575195 1 -0 -0 -1
0.0997584983706474304 0.967771410942077637 1 -0 -0 -1
-0.949037432670593262 2.60202860832214355 1 -0 -0 -1
-0.00578202353790402412 0.92900538444519043 1 -0 -0 -1
-0.861949741840362549 0.863152563571929932 1 -0 -0 -1
-0.39675980806350708 1.28092086315155029 1 -0 -0 -1
-0.881417155265808105 2.70610165596008301 1 -0 -0 -1
0.178644612431526184 0.817735791206359863 1 -0 -0 -1
0.666708409786224365 0.619676351547241211 1 -0 -0 -1
-0.694953322410583496 2.7413017749786377 1 -0 -0 -1
0.609557271003723145 0.873919367790222168 1 -0 -0 -1
-0.0959256738424301147 1.87696516513824463 1 -0 -0 -1
-0.304051846265792847 2.76361227035522461 1 -0 -0 -1
-0.621296703815460205 1.8553694486618042 1 -0 -0 -1
-0.833389997482299805 2.20761585235595703 1 -0 -0 -1
-0.50454866886138916 1.76531398296356201 1 -0 -0 -1
-0.436807096004486084 0.212586641311645508 1 -0 -0 -1
0.702106297016143799 0.78644329309463501 1 -0 -0 -1
-0.547548890113830566 3.09227442741394043 1 -0 -0 -1
-0.462708324193954468 2.21171879768371582 1 -0 -0 -1
-0.924061834812164307 0.414327055215835571 1 -0 -0 -1
-0.375239580869674683 0.352276623249053955 1 -0 -0 -1
0.106571085751056671 1.31384384632110596 1 -0 -0 -1
-0.483342796564102173 0.596049666404724121 1 -0 -0 -1
-0.740697383880615234 2.10272574424743652 1 -0 -0 -1
-0.194314837455749512 0.653215110301971436 1 -0 -0 -1
-0.999767422676086426 2.81952786445617676 1 -0 -0 -1
-0.706327557563781738 1.70086300373077393 1 -0 -0 -1
-0.610089123249053955 0.15625762939453125 1 -0 -0 -1
0.408521413803100586 1.06477046012878418 1 -0 -0 -1
0.388474404811859131 1.34979164600372314 1 -0 -0 -1
-0.425147324800491333 0.279440850019454956 1 -0 -0 -1
0.642162621021270752 0.78789055347442627 1 -0 -0 -1
0.0492127053439617157 0.422948569059371948 1 -0 -0 -1
-0.646462142467498779 0.354485869407653809 1 -0 -0 -1
-0.0885199829936027527 0.589965999126434326 1 -0 -0 -1
0.476636767387390137 0.973079383373260498 1 -0 -0 -1
-0.515948593616485596 2.65199899673461914 1 -0 -0 -1
-0.226123109459877014 1.52523899078369141 1 -0 -0 -1
-0.133211225271224976 2.29366755485534668 1 -0 -0 -1
0.114303246140480042 0.642915666103363037 1 -0 -0 -1
0.615569174289703369 1.07071805000305176 1 -0 -0 -1
-0.885671794414520264 0.447448074817657471 1 -0 -0 -1
-0.476623564958572388 2.54205060005187988 1 -0 -0 -1
-0.989573180675506592 0.588066399097442627 1 -0 -0 -1
-0.782909274101257324 0.851895987987518311 1 -0 -0 -1
-0.394695460796356201 0.756045222282409668 1 -0 -0 -1
-0.453230559825897217 1.21168529987335205 1 -0 -0 -1
-0.837978541851043701 0.984292447566986084 1 -0 -0 -1
-0.827869534492492676 2.75847125053405762 1 -0 -0 -1
-0.0729465261101722717 1.55104911327362061 1 -0 -0 -1
-0.678725183010101318 3.02619147300720215 1 -0 -0 -1
-0.167432233691215515 2.35304784774780273 1 -0 -0 -1
0.564341068267822266 0.677380144596099854 1 -0 -0 -1
-0.775600552558898926 3.34050512313842773 1 -0 -0 -1
-0.134235203266143799 0.247180193662643433 1 -0 -0 -1
-0.402704566717147827 0.863012731075286865 1 -0 -0 -1
0.267643660306930542 1.17561125755310059 1 -0 -0 -1
-0.257776707410812378 0.697877347469329834 1 -0 -0 -1
-0.0454340614378452301 0.792662739753723145 1 -0 -0 -1
-0.914100170135498047 2.55649709701538086 1 -0 -0 -1
0.235890895128250122 1.32327044010162354 1 -0 -0 -1
-0.0169300492852926254 1.4670950174331665 1 -0 -0 -1
-0.760607898235321045 1.19291400909423828 1 -0 -0 -1
-0.937879621982574463 3.56213688850402832 1 -0 -0 -1
0.846791565418243408 0.65262448787689209 1 -0 -0 -1
-0.926742434501647949 1.39187562465667725 1 -0 -0 -1
-0.944822371006011963 2.45379328727722168 1 -0 -0 -1
-0.382074177265167236 1.51567757129669189 1 -0 -0 -1
-0.170044586062431335 1.64978933334350586 1 -0 -0 -1
-0.852968394756317139 2.0359199047088623 1 -0 -0 -1
-0.701474189758300781 0.512272357940673828 1 -0 -0 -1
0.586773514747619629 0.526441514492034912 1 -0 -0 -1
0.132936656475067139 0.727434098720550537 1 -0 -0 -1
-0.486677825450897217 1.58329653739929199 1 -0 -0 -1
-0.0393072105944156647 1.42694532871246338 1 -0 -0 -1
-0.83654707670211792 0.476357251405715942 1 -0 -0 -1
0.27765771746635437 1.37946748733520508 1 -0 -0 -1
-0.989760458469390869 3.05204939842224121 1 -0 -0 -1
-0.433226853609085083 2.95522952079772949 1 -0 -0 -1
-0.609375476837158203 2.6977238655090332 1 -0 -0 -1
-0.075240306556224823 1.62979316711425781 1 -0 -0 -1
-0.75887906551361084 2.2301783561706543 1 -0 -0 -1
-0.807288110256195068 3.44927430152893066 1 -0 -0 -1
-0.285817623138427734 1.64906990528106689 1 -0 -0 -1
0.245242759585380554 0.615860044956207275 1 -0 -0 -1
-0.472844541072845459 1.68489396572113037 1 -0 -0 -1
-0.0342789925634860992 1.87464451789855957 1 -0 -0 -1
-0.728899836540222168 3.44809556007385254 1 -0 -0 -1
0.696832001209259033 0.703912258148193359 1 -0 -0 -1
-0.343878239393234253 1.47752904891967773 1 -0 -0 -1
-0.980780124664306641 1.96070539951324463 1 -0 -0 -1
-0.457010507583618164 2.45608973503112793 1 -0 -0 -1
0.0547937937080860138 1.82999908924102783 1 -0 -0 -1
-0.881681680679321289 2.50498342514038086 1 -0 -0 -1
0.863881528377532959 0.498371690511703491 1 -0 -0 -1
0.587058901786804199 1.17655336856842041 1 -0 -0 -1
0.475980550050735474 1.34201931953430176 1 -0 -0 -1
-0.85074913501739502 2.59715580940246582 1 -0 -0 -1
0.318739563226699829 0.376646906137466431 1 -0 -0 -1
-0.848404645919799805 3.3276371955871582 1 -0 -0 -1
-0.449968576431274414 0.434945672750473022 1 -0 -0 -1
0.503709614276885986 0.777184903621673584 1 -0 -0 -1
0.443611294031143188 1.17601406574249268 1 -0 -0 -1
-0.702493846416473389 1.9870452880859375 1 -0 -0 -1
-0.817365467548370361 1.17753040790557861 1 -0 -0 -1
-0.00297184055671095848 1.23942029476165771 1 -0 -0 -1
0.669728934764862061 1.03711140155792236 1 -0 -0 -1
-0.799567461013793945 1.2249990701675415 1 -0 -0 -1
0.466629952192306519 0.890112578868865967 1 -0 -0 -1
0.319714844226837158 1.33675873279571533 1 -0 -0 -1
0.241780102252960205 0.410817921161651611 1 -0 -0 -1
-0.944445490837097168 3.1333928108215332 1 -0 -0 -1
-0.422274351119995117 0.390736103057861328 1 -0 -0 -1
0.328720986843109131 0.959049344062805176 1 -0 -0 -1
-0.423676818609237671 2.10706949234008789 1 -0 -0 -1
0.00264611048623919487 0.562943816184997559 1 -0 -0 -1
-0.728204667568206787 1.9494929313659668 1 -0 -0 -1
-0.643728017807006836 1.79184150695800781 1 -0 -0 -1
0.667841255664825439 0.425147801637649536 1 -0 -0 -1
0.386062771081924438 1.26924264430999756 1 -0 -0 -1
0.09662599116563797 1.70836246013641357 1 -0 -0 -1
-0.328122377395629883 0.800951182842254639 1 -0 -0 -1
-0.767153501510620117 1.40697741508483887 1 -0 -0 -1
0.642262518405914307 0.835233509540557861 1 -0 -0 -1
-0.241498947143554688 1.80608236789703369 1 -0 -0 -1
0.296788722276687622 1.42877674102783203 1 -0 -0 -1
-0.796008765697479248 1.87516319751739502 1 -0 -0 -1
-0.305879861116409302 1.01153206825256348 1 -0 -0 -1
0.168625816702842712 0.764770686626434326 1 -0 -0 -1
-0.130961030721664429 1.78722286224365234 1 -0 -0 -1
-0.127033829689025879 0.295024633407592773 1 -0 -0 -1
-0.593855738639831543 3.24322628974914551 1 -0 -0 -1
0.285871565341949463 0.437505960464477539 1 -0 -0 -1
0.466661751270294189 1.22202515602111816 1 -0 -0 -1
-0.238901242613792419 0.922847390174865723 1 -0 -0 -1
-0.995977044105529785 0.230984494090080261 1 -0 -0 -1
-0.726188123226165771 1.58695721626281738 1 -0 -0 -1
-0.468400955200195312 2.39413285255432129 1 -0 -0 -1
-0.752783060073852539 0.198307052254676819 1 -0 -0 -1
-0.520151734352111816 0.838325798511505127 1 -0 -0 -1
-0.335560113191604614 2.26439070701599121 1 -0 -0 -1
0.482568591833114624 0.416906684637069702 1 -0 -0 -1
-0.250337690114974976 2.30324387550354004 1 -0 -0 -1
-0.523858606815338135 2.23589587211608887 1 -0 -0 -1
-0.654824495315551758 0.800712049007415771 1 -0 -0 -1
-0.504772484302520752 2.35996341705322266 1 -0 -0 -1
-0.821761548519134521 0.820836961269378662 1 -0 -0 -1
-0.372080385684967041 2.3039093017578125 1 -0 -0 -1
-0.278387159109115601 1.97451376914978027 1 -0 -0 -1
0.417699754238128662 1.38980400562286377 1 -0 -0 -1
-0.644935548305511475 1.42129874229431152 1 -0 -0 -1
-0.533927261829376221 1.2397226095199585 1 -0 -0 -1
-0.836747229099273682 3.14772629737854004 1 -0 -0 -1
-0.415450125932693481 2.28937673568725586 1 -0 -0 -1
-0.439349174499511719 2.86087608337402344 1 -0 -0 -1
0.423910588026046753 0.367544770240783691 1 -0 -0 -1
-0.228938385844230652 2.1527862548828125 1 -0 -0 -1
0.640156209468841553 0.674644649028778076 1 -0 -0 -1
-0.769358932971954346 2.65680766105651855 1 -0 -0 -1
-0.779079020023345947 2.38840651512145996 1 -0 -0 -1
-0.536598563194274902 1.12132084369659424 1 -0 -0 -1
-0.680238306522369385 3.10376334190368652 1 -0 -0 -1
0.602387726306915283 0.94193267822265625 1 -0 -0 -1
-0.10012315958738327 2.11203527450561523 1 -0 -0 -1
-0.234881415963172913 2.21119427680969238 1 -0 -0 -1
-0.109295286238193512 2.34732151031494141 1 -0 -0 -1
-0.178838923573493958 1.56256651878356934 1 -0 -0 -1
-0.556814968585968018 2.53445315361022949 1 -0 -0 -1
-0.608396470546722412 2.52483797073364258 1 -0 -0 -1
-0.316984564065933228 2.70050382614135742 1 -0 -0 -1
-0.382452905178070068 0.181053265929222107 1 -0 -0 -1
-0.176375716924667358 2.14353680610656738 1 -0 -0 -1
-0.153916031122207642 1.84317445755004883 1 -0 -0 -1
-0.38379475474357605 1.59035122394561768 1 -0 -0 -1
-0.359457463026046753 0.245747968554496765 1 -0 -0 -1
-0.0222795978188514709 2.03822994232177734 1 -0 -0 -1
-0.431376874446868896 1.07063961029052734 1 -0 -0 -1
-0.344148308038711548 0.972361385822296143 1 -0 -0 -1
-0.434688389301300049 1.5897066593170166 1 -0 -0 -1
-0.577892720699310303 2.34033679962158203 1 -0 -0 -1
-0.391798079013824463 1.10841941833496094 1 -0 -0 -1
-0.771464705467224121 1.99648594856262207 1 -0 -0 -1
-0.536263525485992432 0.934049427509307861 1 -0 -0 -1
-0.89017033576965332 0.22498677670955658 1 -0 -0 -1
-0.649290859699249268 3.19739747047424316 1 -0 -0 -1
0.0715790241956710815 1.5010753870010376 1 -0 -0 -1
-0.453744649887084961 1.36679208278656006 1 -0 -0 -1
-0.0226257704198360443 0.488127470016479492 1 -0 -0 -1
0.160361558198928833 1.37571227550506592 1 -0 -0 -1
0.157988026738166809 1.94033145904541016 1 -0 -0 -1
-0.479201197624206543 2.60537266731262207 1 -0 -0 -1
0.361854374408721924 0.464876621961593628 1 -0 -0 -1
-0.400590837001800537 1.74556195735931396 1 -0 -0 -1
-0.767648816108703613 2.27538108825683594 1 -0 -0 -1
0.459431767463684082 0.829586029052734375 1 -0 -0 -1
-0.978495776653289795 3.84041213989257812 1 -0 -0 -1
-0.0567534752190113068 2.08192801475524902 1 -0 -0 -1
-0.999140799045562744 1.55211532115936279 1 -0 -0 -1
0.166670739650726318 0.695104777812957764 1 -0 -0 -1
-0.685329139232635498 0.56053006649017334 1 -0 -0 -1
-0.49644055962562561 2.85611319541931152 1 -0 -0 -1
-0.676924467086791992 1.25869977474212646 1 -0 -0 -1
-0.0117192389443516731 2.22025799751281738 1 -0 -0 -1
-0.601244807243347168 1.99878382682800293 1 -0 -0 -1
0.27214398980140686 0.360248833894729614 1 -0 -0 -1
0.6191214919090271 1.02258789539337158 1 -0 -0 -1
-0.292389541864395142 0.236236810684204102 1 -0 -0 -1
0.102176770567893982 1.36930084228515625 1 -0 -0 -1
-0.0773158371448516846 0.393507033586502075 1 -0 -0 -1
-0.153859496116638184 0.694841504096984863 1 -0 -0 -1
0.0817070603370666504 2.0223076343536377 1 -0 -0 -1
-0.37476801872253418 2.3928229808807373 1 -0 -0 -1
0.402016103267669678 0.602031946182250977 1 -0 -0 -1
-0.534437835216522217 0.200535491108894348 1 -0 -0 -1
-0.805691778659820557 3.64556455612182617 1 -0 -0 -1
-0.464276939630508423 0.253187179565429688 1 -0 -0 -1
-0.850356042385101318 1.90095460414886475 1 -0 -0 -1
0.653957128524780273 0.722611904144287109 1 -0 -0 -1
-0.458225548267364502 2.25787758827209473 1 -0 -0 -1
-0.143945187330245972 1.4771730899810791 1 -0 -0 -1
-0.719482064247131348 2.62685751914978027 1 -0 -0 -1
-0.344359099864959717 1.95952415466308594 1 -0 -0 -1
-0.791914641857147217 0.164483129978179932 1 -0 -0 -1
-0.458648175001144409 1.73464870452880859 1 -0 -0 -1
-0.936354994773864746 2.26083660125732422 1 -0 -0 -1
-0.681530892848968506 0.392782807350158691 1 -0 -0 -1
-0.301437079906463623 0.336951673030853271 1 -0 -0 -1
0.598663806915283203 0.807410478591918945 1 -0 -0 -1
-0.255051732063293457 1.23362159729003906 1 -0 -0 -1
0.157646670937538147 0.883279025554656982 1 -0 -0 -1
-0.856098651885986328 1.05403411388397217 1 -0 -0 -1
-0.0161710605025291443 1.32932114601135254 1 -0 -0 -1
-0.762984871864318848 1.72040700912475586 1 -0 -0 -1
-0.954207837581634521 1.00748515129089355 1 -0 -0 -1
0.360847383737564087 0.512525677680969238 1 -0 -0 -1
-0.813309371471405029 3.29868197441101074 1 -0 -0 -1
0.099602334201335907 0.455193519592285156 1 -0 -0 -1
0.242824271321296692 0.558528244495391846 1 -0 -0 -1
0.0566334687173366547 0.865014135837554932 1 -0 -0 -1
0.068032287061214447 1.76805341243743896 1 -0 -0 -1
-0.514618933200836182 0.255432754755020142 1 -0 -0 -1
-0.825282931327819824 0.766038477420806885 1 -0 -0 -1
-0.825261414051055908 2.27300786972045898 1 -0 -0 -1
-0.809819638729095459 1.64553892612457275 1 -0 -0 -1
-0.779677212238311768 3.12929320335388184 1 -0 -0 -1
-0.732138335704803467 1.27576327323913574 1 -0 -0 -1
0.393444240093231201 0.67729872465133667 1 -0 -0 -1
-0.335571646690368652 1.66786849498748779 1 -0 -0 -1
-0.489532947540283203 0.195273503661155701 1 -0 -0 -1
0.0587836131453514099 0.560625553131103516 1 -0 -0 -1
-0.855020523071289062 0.0454426072537899017 1 -0 -0 -1
0.353141725063323975 1.62074065208435059 1 -0 -0 -1
-0.159864723682403564 1.89859068393707275 1 -0 -0 -1
0.0578058473765850067 1.16246390342712402 1 -0 -0 -1
0.249358043074607849 0.476379454135894775 1 -0 -0 -1
-0.909581422805786133 2.7532966136932373 1 -0 -0 -1
-0.193651318550109863 2.51470232009887695 1 -0 -0 -1
-0.470337450504302979 0.372745633125305176 1 -0 -0 -1
-0.353275775909423828 2.8581092357635498 1 -0 -0 -1
-0.408707588911056519 1.22857975959777832 1 -0 -0 -1
-0.305745542049407959 1.44754576683044434 1 -0 -0 -1
-0.931104719638824463 1.67459440231323242 1 -0 -0 -1
-0.334920674562454224 0.193119421601295471 1 -0 -0 -1
-0.939633846282958984 3.07995748519897461 1 -0 -0 -1
-0.360870927572250366 2.5138099193572998 1 -0 -0 -1
-0.260645568370819092 1.86581552028656006 1 -0 -0 -1
-0.551981091499328613 2.9464108943939209 1 -0 -0 -1
0.556216597557067871 0.950438559055328369 1 -0 -0 -1
-0.999551713466644287 3.64448857307434082 1 -0 -0 -1
0.253203064203262329 1.78988540172576904 1 -0 -0 -1
-0.35022398829460144 2.46001291275024414 1 -0 -0 -1
-0.270820528268814087 0.775852978229522705 1 -0 -0 -1
-0.549171030521392822 1.95737302303314209 1 -0 -0 -1
0.352597177028656006 1.06550586223602295 1 -0 -0 -1
-0.183357089757919312 2.09513497352600098 1 -0 -0 -1
-0.254848062992095947 1.48649108409881592 1 -0 -0 -1
0.0548767298460006714 1.6322174072265625 1 -0 -0 -1
-0.230851396918296814 1.18135356903076172 1 -0 -0 -1
-0.278618007898330688 0.385925799608230591 1 -0 -0 -1
0.505945146083831787 0.913611471652984619 1 -0 -0 -1
-0.684961915016174316 3.25015759468078613 1 -0 -0 -1
-0.732285499572753906 3.01482629776000977 1 -0 -0 -1
-0.611159443855285645 0.839638829231262207 1 -0 -0 -1
0.395946413278579712 0.755230367183685303 1 -0 -0 -1
-0.182960987091064453 0.424972176551818848 1 -0 -0 -1
-0.949654817581176758 1.72522175312042236 1 -0 -0 -1
-0.627508878707885742 2.32625150680541992 1 -0 -0 -1
0.805744946002960205 0.82353663444519043 1 -0 -0 -1
-0.890680074691772461 0.0771870315074920654 1 -0 -0 -1
-0.824391961097717285 2.33458757400512695 1 -0 -0 -1
-0.782547533512115479 0.107267744839191437 1 -0 -0 -1
-0.66485130786895752 1.32550168037414551 1 -0 -0 -1
0.380021542310714722 0.896693050861358643 1 -0 -0 -1
0.538769125938415527 0.401040464639663696 1 -0 -0 -1
-0.657802999019622803 1.69256651401519775 1 -0 -0 -1
-0.827902555465698242 2.14473152160644531 1 -0 -0 -1
-0.715469121932983398 2.68575668334960938 1 -0 -0 -1
-0.884981393814086914 2.24806594848632812 1 -0 -0 -1
-0.205058753490447998 2.0537104606628418 1 -0 -0 -1
-0.674503087997436523 1.12963998317718506 1 -0 -0 -1
-0.733693301677703857 0.663908421993255615 1 -0 -0 -1
-0.631187856197357178 2.27249002456665039 1 -0 -0 -1
-0.156881853938102722 1.17356753349304199 1 -0 -0 -1
-0.947465240955352783 2.1542210578918457 1 -0 -0 -1
-0.178440645337104797 1.22593474388122559 1 -0 -0 -1
0.307195454835891724 1.12803804874420166 1 -0 -0 -1
-0.521327197551727295 1.01196205615997314 1 -0 -0 -1
0.116825900971889496 1.24193286895751953 1 -0 -0 -1
0.203999966382980347 1.05721116065979004 1 -0 -0 -1
-0.509309351444244385 2.16232895851135254 1 -0 -0 -1
-0.919409036636352539 2.03385066986083984 1 -0 -0 -1
-0.802916586399078369 1.06585860252380371 1 -0 -0 -1
-0.103302106261253357 2.41697883605957031 1 -0 -0 -1
-0.861781895160675049 2.30844569206237793 1 -0 -0 -1
-0.445489972829818726 0.830163538455963135 1 -0 -0 -1
-0.893812835216522217 1.35495829582214355 1 -0 -0 -1
-0.393724769353866577 0.491983652114868164 1 -0 -0 -1
-0.901470839977264404 3.0292055606842041 1 -0 -0 -1
0.440528512001037598 1.43684673309326172 1 -0 -0 -1
-0.198500514030456543 0.708667278289794922 1 -0 -0 -1
-0.876769125461578369 1.50418007373809814 1 -0 -0 -1
-0.552779793739318848 1.41691148281097412 1 -0 -0 -1
-0.885622501373291016 3.27325439453125 1 -0 -0 -1
-0.993274807929992676 2.36914348602294922 1 -0 -0 -1
-0.0615381188690662384 1.91327297687530518 1 -0 -0 -1
-0.940199613571166992 2.32453560829162598 1 -0 -0 -1
-0.838860988616943359 1.71350562572479248 1 -0 -0 -1
-0.435073256492614746 1.47619318962097168 1 -0 -0 -1
-0.189095824956893921 0.986082732677459717 1 -0 -0 -1
-0.0844005048274993896 0.25833776593208313 1 -0 -0 -1
0.00936653651297092438 0.734997987747192383 1 -0 -0 -1
-0.281321167945861816 2.35249733924865723 1 -0 -0 -1
0.0561967529356479645 1.33568978309631348 1 -0 -0 -1
-0.667975485324859619 2.2139894962310791 1 -0 -0 -1
-0.672920167446136475 1.18244612216949463 1 -0 -0 -1
0.390593677759170532 0.426620781421661377 1 -0 -0 -1
-0.562284886837005615 2.67801022529602051 1 -0 -0 -1
-0.461292564868927002 0.52799379825592041 1 -0 -0 -1
-0.45942533016204834 1.63612246513366699 1 -0 -0 -1
-0.206403777003288269 0.879223167896270752 1 -0 -0 -1
0.187552079558372498 0.412232577800750732 1 -0 -0 -1
0.154229253530502319 1.03277480602264404 1 -0 -0 -1
-0.535960912704467773 1.35762858390808105 1 -0 -0 -1
0.0631767958402633667 1.97262370586395264 1 -0 -0 -1
-0.14359620213508606 0.513688504695892334 1 -0 -0 -1
-0.399592578411102295 2.15956282615661621 1 -0 -0 -1
0.291026473045349121 1.04504275321960449 1 -0 -0 -1
0.215119138360023499 0.698002040386199951 1 -0 -0 -1
0.292737364768981934 1.26708149909973145 1 -0 -0 -1
-0.589432656764984131 1.45951545238494873 1 -0 -0 -1
0.959820210933685303 0.527016818523406982 1 -0 -0 -1
-0.307146251201629639 2.19683480262756348 1 -0 -0 -1
0.356247574090957642 1.52597188949584961 1 -0 -0 -1
-0.181502878665924072 0.293191403150558472 1 -0 -0 -1
0.0321586355566978455 0.644409775733947754 1 -0 -0 -1
0.338943004608154297 0.830572545528411865 1 -0 -0 -1
-0.754017293453216553 3.17118501663208008 1 -0 -0 -1
0.554093003273010254 0.72552025318145752 1 -0 -0 -1
0.000564838293939828873 1.19170010089874268 1 -0 -0 -1
0.505303502082824707 1.04955267906188965 1 -0 -0 -1
-0.582213222980499268 2.12072134017944336 1 -0 -0 -1
-0.206497222185134888 1.67929542064666748 1 -0 -0 -1
-0.749500870704650879 2.81636142730712891 1 -0 -0 -1
-0.25925290584564209 2.41855621337890625 1 -0 -0 -1
-0.840670645236968994 2.81160640716552734 1 -0 -0 -1
0.411873728036880493 1.12172389030456543 1 -0 -0 -1
-0.813936591148376465 2.90919923782348633 1 -0 -0 -1
-0.601506471633911133 0.4276256263256073 1 -0 -0 -1
-0.0439540781080722809 0.670718014240264893 1 -0 -0 -1
-0.789103329181671143 2.18611383438110352 1 -0 -0 -1
-0.000440492876805365086 0.366168767213821411 1 -0 -0 -1
-0.562755286693572998 3.02053165435791016 1 -0 -0 -1
0.219190791249275208 0.780641317367553711 1 -0 -0 -1
0.151854857802391052 1.09486651420593262 1 -0 -0 -1
-0.127471223473548889 0.46412128210067749 1 -0 -0 -1
-0.592092812061309814 2.57437491416931152 1 -0 -0 -1
-0.691838443279266357 2.25636601448059082 1 -0 -0 -1
-0.408825546503067017 1.69691133499145508 1 -0 -0 -1
-0.990292370319366455 1.16601896286010742 1 -0 -0 -1
-0.912229359149932861 3.20030331611633301 1 -0 -0 -1
-0.846520543098449707 3.6080622673034668 1 -0 -0 -1
-0.175812035799026489 2.45254969596862793 1 -0 -0 -1
-0.419701576232910156 0.624766290187835693 1 -0 -0 -1
-0.697200536727905273 0.831281960010528564 1 -0 -0 -1
-0.778418362140655518 2.44035816192626953 1 -0 -0 -1
-0.60514754056930542 0.246365517377853394 1 -0 -0 -1
-0.667453110218048096 3.40954947471618652 1 -0 -0 -1
0.0804236605763435364 0.362973958253860474 1 -0 -0 -1
-0.222871094942092896 2.00825214385986328 1 -0 -0 -1
0.566979646682739258 0.574594974517822266 1 -0 -0 -1
0.35226207971572876 0.730747103691101074 1 -0 -0 -1
-0.722861230373382568 2.87187361717224121 1 -0 -0 -1
-0.238622277975082397 2.09576320648193359 1 -0 -0 -1
-0.793354034423828125 0.727605223655700684 1 -0 -0 -1
-0.860825121402740479 1.57369720935821533 1 -0 -0 -1
-0.663671195507049561 1.37345170974731445 1 -0 -0 -1
0.684917926788330078 0.494563758373260498 1 -0 -0 -1
-0.140934750437736511 0.87555086612701416 1 -0 -0 -1
-0.999702274799346924 2.99095821380615234 1 -0 -0 -1
-0.908849537372589111 0.811749815940856934 1 -0 -0 -1
0.553374290466308594 1.20983242988586426 1 -0 -0 -1
-0.38321492075920105 2.6239774227142334 1 -0 -0 -1
-0.488249003887176514 0.696951031684875488 1 -0 -0 -1
-0.817489087581634521 2.47408962249755859 1 -0 -0 -1
-0.708248734474182129 1.21366405487060547 1 -0 -0 -1
-0.10166061669588089 2.17031717300415039 1 -0 -0 -1
0.479013562202453613 0.608869969844818115 1 -0 -0 -1
-0.936183273792266846 2.99468421936035156 1 -0 -0 -1
0.313308179378509521 0.488767027854919434 1 -0 -0 -1
-0.233226820826530457 1.05085361003875732 1 -0 -0 -1
-0.164919808506965637 1.29568064212799072 1 -0 -0 -1
0.2084684818983078 1.00062847137451172 1 -0 -0 -1
-0.803051531314849854 2.58371186256408691 1 -0 -0 -1
-0.82781141996383667 0.609130978584289551 1 -0 -0 -1
0.230526402592658997 1.12557458877563477 1 -0 -0 -1
-0.380934447050094604 0.657129347324371338 1 -0 -0 -1
-0.471728205680847168 3.02326560020446777 1 -0 -0 -1
-0.0210295673459768295 1.73929107189178467 1 -0 -0 -1
0.19502827525138855 1.69513845443725586 1 -0 -0 -1
-0.62456977367401123 0.962975561618804932 1 -0 -0 -1
-0.741775810718536377 0.0738740190863609314 1 -0 -0 -1
0.192194193601608276 1.4502723217010498 1 -0 -0 -1
-0.214735910296440125 1.87495934963226318 1 -0 -0 -1
0.188790842890739441 1.51471889019012451 1 -0 -0 -1
-0.383738279342651367 2.71011900901794434 1 -0 -0 -1
-0.864398300647735596 1.17538332939147949 1 -0 -0 -1
-0.902902841567993164 2.09333467483520508 1 -0 -0 -1
0.313912063837051392 0.89752662181854248 1 -0 -0 -1
-0.66520082950592041 2.97109079360961914 1 -0 -0 -1
-0.308942854404449463 0.44107624888420105 1 -0 -0 -1
0.039859723299741745 2.15757584571838379 1 -0 -0 -1
-0.380238056182861328 1.42735576629638672 1 -0 -0 -1
-0.947415292263031006 2.64708733558654785 1 -0 -0 -1
-0.551813781261444092 0.419246494770050049 1 -0 -0 -1
0.17887580394744873 1.24769926071166992 1 -0 -0 -1
-0.322937190532684326 0.602333009243011475 1 -0 -0 -1
0.187971398234367371 1.30240225791931152 1 -0 -0 -1
-0.321870863437652588 1.91142010688781738 1 -0 -0 -1
-0.273889750242233276 1.32989108562469482 1 -0 -0 -1
-0.936343371868133545 2.91866898536682129 1 -0 -0 -1
-0.568174660205841064 0.546223282814025879 1 -0 -0 -1
0.11673804372549057 1.5343700647354126 1 -0 -0 -1
0.0219747703522443771 0.966986775398254395 1 -0 -0 -1
-0.0620880462229251862 0.927245557308197021 1 -0 -0 -1
-0.355062425136566162 2.76157093048095703 1 -0 -0 -1
-0.572918176651000977 1.51712572574615479 1 -0 -0 -1
0.310463517904281616 0.769856274127960205 1 -0 -0 -1
-0.77804797887802124 0.793700754642486572 1 -0 -0 -1
-0.257873892784118652 0.602518141269683838 1 -0 -0 -1
-0.370514243841171265 0.607795119285583496 1 -0 -0 -1
0.0544047169387340546 2.09815478324890137 1 -0 -0 -1
0.412754148244857788 0.949999094009399414 1 -0 -0 -1
0.133971646428108215 1.66638600826263428 1 -0 -0 -1
-0.419267147779464722 0.968210399150848389 1 -0 -0 -1
-0.684516549110412598 0.654450416564941406 1 -0 -0 -1
-0.675082385540008545 1.60242462158203125 1 -0 -0 -1
0.555631041526794434 1.03190064430236816 1 -0 -0 -1
-0.796682536602020264 0.364797800779342651 1 -0 -0 -1
-0.0634712874889373779 0.455545037984848022 1 -0 -0 -1
-0.820028424263000488 1.53698110580444336 1 -0 -0 -1
-0.848910510540008545 2.42663764953613281 1 -0 -0 -1
-0.841736733913421631 0.0971219465136528015 1 -0 -0 -1
-0.78712540864944458 1.81083476543426514 1 -0 -0 -1
0.449960201978683472 0.669773459434509277 1 -0 -0 -1
-0.307958930730819702 2.50645828247070312 1 -0 -0 -1
-0.153925493359565735 1.08384490013122559 1 -0 -0 -1
-0.948503792285919189 1.80084121227264404 1 -0 -0 -1
-0.659926295280456543 0.455871492624282837 1 -0 -0 -1
-0.265413194894790649 2.47350120544433594 1 -0 -0 -1
-0.856794178485870361 3.69487404823303223 1 -0 -0 -1
-0.777910411357879639 1.35664308071136475 1 -0 -0 -1
0.362091183662414551 1.41067588329315186 1 -0 -0 -1
-0.529031693935394287 0.467750638723373413 1 -0 -0 -1
-0.589702367782592773 0.922650635242462158 1 -0 -0 -1
-0.618133366107940674 2.91100406646728516 1 -0 -0 -1
-0.996449172496795654 0.823365151882171631 1 -0 -0 -1
-0.471861273050308228 2.02730584144592285 1 -0 -0 -1
-0.187561407685279846 1.46223604679107666 1 -0 -0 -1
-0.83274608850479126 1.49018251895904541 1 -0 -0 -1
-0.525145232677459717 2.46050143241882324 1 -0 -0 -1
-0.430143028497695923 1.96409201622009277 1 -0 -0 -1
0.326803326606750488 0.560549437999725342 1 -0 -0 -1
0.17333608865737915 1.81172633171081543 1 -0 -0 -1
0.438610076904296875 1.26895737648010254 1 -0 -0 -1
-0.449517130851745605 0.731881439685821533 1 -0 -0 -1
-0.886909127235412598 3.63687729835510254 1 -0 -0 -1
-0.891834735870361328 3.38909816741943359 1 -0 -0 -1
-0.527811050415039062 2.40793943405151367 1 -0 -0 -1
-0.639102399349212646 3.26167607307434082 1 -0 -0 -1
-0.594626963138580322 3.16081047058105469 1 -0 -0 -1
-0.501515865325927734 1.95358014106750488 1 -0 -0 -1
