ply
format ascii 1.0
element vertex 909
property float x
property float y
property float z
property float nx
property float ny
property float nz
end_header
-1 2.8833467960357666 -0.958595752716064453 1 -0 -0
-1 1.3546072244644165 -0.915645241737365723 1 -0 -0
-1 0.704672276973724365 -0.872737109661102295 1 -0 -0
-1 3.53896975517272949 -0.982290029525756836 1 -0 -0
-1 0.641101479530334473 -0.878619849681854248 1 -0 -0
-1 0.113935932517051697 -0.874376118183135986 1 -0 -0
-1 1.03044748306274414 -0.896112203598022461 1 -0 -0
-1 0.760061204433441162 -0.85206294059753418 1 -0 -0
-1 1.07403278350830078 -0.880355477333068848 1 -0 -0
-1 2.70406341552734375 -0.951046884059906006 1 -0 -0
-1 1.52933168411254883 -0.911096811294555664 1 -0 -0
-1 2.58789420127868652 -0.942810893058776855 1 -0 -0
-1 2.33391427993774414 -0.930247902870178223 1 -0 -0
-1 1.93276107311248779 -0.917133033275604248 1 -0 -0
-1 3.41508126258850098 -0.973915755748748779 1 -0 -0
-1 1.60369062423706055 -0.896439671516418457 1 -0 -0
-1 2.15035319328308105 -0.92704308032989502 1 -0 -0
-1 1.2911689281463623 -0.9034385085105896 1 -0 -0
-1 1.84028542041778564 -0.904120981693267822 1 -0 -0
-1 1.4086843729019165 -0.912478387355804443 1 -0 -0
-1 0.456242293119430542 -0.868850469589233398 1 -0 -0
-1 1.78383123874664307 -0.904563367366790771 1 -0 -0
-1 0.222772598266601562 -0.858159899711608887 1 -0 -0
-1 0.0720928162336349487 -0.830461680889129639 1 -0 -0
-1 1.15893697738647461 -0.910316765308380127 1 -0 -0
-1 0.844146668910980225 -0.883432388305664062 1 -0 -0
-1 2.64255142211914062 -0.937365949153900146 1 -0 -0
-1 0.319309413433074951 -0.858618617057800293 1 -0 -0
-1 1.16440987586975098 -0.855316698551177979 1 -0 -0
-1 0.590179145336151123 -0.83504021167755127 1 -0 -0
-1 1.67348384857177734 -0.861725866794586182 1 -0 -0
-1 0.109167881309986115 -0.788665294647216797 1 -0 -0
-1 1.55996072292327881 -0.868073821067810059 1 -0 -0
-1 1.7167133092880249 -0.88972848653793335 1 -0 -0
-1 0.267084360122680664 -0.808110296726226807 1 -0 -0
-1 1.36684584617614746 -0.859264552593231201 1 -0 -0
-1 2.11301660537719727 -0.896303474903106689 1 -0 -0
-1 2.8005530834197998 -0.941974759101867676 1 -0 -0
-1 1.48704659938812256 -0.879610776901245117 1 -0 -0
-1 0.206699177622795105 -0.803806722164154053 1 -0 -0
-1 0.713513374328613281 -0.797665297985076904 1 -0 -0
-1 2.52095842361450195 -0.916418492794036865 1 -0 -0
-1 1.04230344295501709 -0.832651734352111816 1 -0 -0
-1 0.579416096210479736 -0.786543965339660645 1 -0 -0
-1 0.837010502815246582 -0.805923283100128174 1 -0 -0
-1 2.45616507530212402 -0.919253230094909668 1 -0 -0
-1 0.460383623838424683 -0.779611051082611084 1 -0 -0
-1 2.27715110778808594 -0.912796199321746826 1 -0 -0
-1 0.980310976505279541 -0.838185667991638184 1 -0 -0
-1 2.74815225601196289 -0.926931262016296387 1 -0 -0
-1 0.161201968789100647 -0.81842958927154541 1 -0 -0
-1 0.39637187123298645 -0.801397442817687988 1 -0 -0
-1 3.05338644981384277 -0.94448477029800415 1 -0 -0
-1 0.93778759241104126 -0.854455530643463135 1 -0 -0
-1 0.677618622779846191 -0.831417560577392578 1 -0 -0
-1 1.89407801628112793 -0.87174069881439209 1 -0 -0
-1 0.526450037956237793 -0.811474144458770752 1 -0 -0
-1 1.98007750511169434 -0.899964988231658936 1 -0 -0
-1 0.886937320232391357 -0.842980444431304932 1 -0 -0
-1 1.24878394603729248 -0.860081970691680908 1 -0 -0
-1 2.23018479347229004 -0.910591721534729004 1 -0 -0
-0.540021121501922607 2.03605437278747559 -1 -0 -0 1
-0.899274230003356934 3.54788613319396973 -1 -0 -0 1
-0.152238637208938599 0.380511313676834106 -1 -0 -0 1
-0.241274163126945496 0.790487885475158691 -1 -0 -0 1
-0.247641846537590027 0.573393642902374268 -1 -0 -0 1
-0.348718166351318359 1.09896564483642578 -1 -0 -0 1
-0.601490974426269531 2.3329474925994873 -1 -0 -0 1
-0.444409400224685669 1.67822444438934326 -1 -0 -0 1
-0.0508436299860477448 0.190484479069709778 -1 -0 -0 1
-0.636756777763366699 2.43812870979309082 -1 -0 -0 1
-0.358590871095657349 1.19781947135925293 -1 -0 -0 1
-0.0981596782803535461 0.359689086675643921 -1 -0 -0 1
-0.4935302734375 1.8621751070022583 -1 -0 -0 1
-0.250979125499725342 0.715032815933227539 -1 -0 -0 1
-0.760453224182128906 3.01960325241088867 -1 -0 -0 1
-0.177854418754577637 0.560276448726654053 -1 -0 -0 1
-0.143700465559959412 0.516889333724975586 -1 -0 -0 1
-0.0694189593195915222 0.0349891260266304016 -1 -0 -0 1
-0.100063160061836243 0.151835605502128601 -1 -0 -0 1
-0.321133524179458618 1.14815032482147217 -1 -0 -0 1
-0.0455607697367668152 0.122198775410652161 -1 -0 -0 1
-0.358132421970367432 1.36644101142883301 -1 -0 -0 1
-0.282647043466567993 0.938217759132385254 -1 -0 -0 1
-0.283715605735778809 1.11239981651306152 -1 -0 -0 1
-0.132347047328948975 0.0742418244481086731 -1 -0 -0 1
-0.528431892395019531 2.08485245704650879 -1 -0 -0 1
-0.446444004774093628 1.61723792552947998 -1 -0 -0 1
-0.123746417462825775 0.302942872047424316 -1 -0 -0 1
-0.569854974746704102 2.11092257499694824 -1 -0 -0 1
-0.133607029914855957 0.435271203517913818 -1 -0 -0 1
-0.247408404946327209 0.622018814086914062 -1 -0 -0 1
-0.281202197074890137 1.06136977672576904 -1 -0 -0 1
-0.20028221607208252 0.621132910251617432 -1 -0 -0 1
-0.0906898602843284607 0.229839488863945007 -1 -0 -0 1
-0.399697601795196533 1.29667603969573975 -1 -0 -0 1
-0.324270486831665039 1.24148571491241455 -1 -0 -0 1
-0.449107915163040161 1.77720332145690918 -1 -0 -0 1
-0.826733291149139404 3.24776530265808105 -1 -0 -0 1
-0.167804345488548279 0.336052656173706055 -1 -0 -0 1
-0.276742696762084961 0.890487432479858398 -1 -0 -0 1
-0.780576646327972412 3.06588053703308105 -1 -0 -0 1
-0.19994962215423584 0.680326282978057861 -1 -0 -0 1
-0.278796106576919556 0.994101762771606445 -1 -0 -0 1
-0.320631921291351318 0.971466422080993652 -1 -0 -0 1
-0.85369873046875 3.39543437957763672 -1 -0 -0 1
-0.0819700583815574646 0.0898315459489822388 -1 -0 -0 1
-0.571525156497955322 2.18903541564941406 -1 -0 -0 1
-0.546265482902526855 1.98850488662719727 -1 -0 -0 1
-0.375504165887832642 1.25597572326660156 -1 -0 -0 1
-0.472757428884506226 1.73517990112304688 -1 -0 -0 1
-0.501611113548278809 1.79746150970458984 -1 -0 -0 1
-0.194045707583427429 0.465806007385253906 -1 -0 -0 1
-0.418113529682159424 1.53205728530883789 -1 -0 -0 1
-0.664844095706939697 2.56840157508850098 -1 -0 -0 1
-0.280339181423187256 0.671279013156890869 -1 -0 -0 1
-0.947730720043182373 3.74324131011962891 -1 -0 -0 1
-0.230295658111572266 0.417662471532821655 -1 -0 -0 1
-0.749188840389251709 2.83312129974365234 -1 -0 -0 1
-0.307620704174041748 0.795694291591644287 -1 -0 -0 1
-0.329350173473358154 0.876309514045715332 -1 -0 -0 1
-0.157570675015449524 0.114392213523387909 -1 -0 -0 1
-0.433642804622650146 1.24788284301757812 -1 -0 -0 1
-0.247538208961486816 0.373284816741943359 -1 -0 -0 1
-0.383262336254119873 1.12910401821136475 -1 -0 -0 1
-0.538499712944030762 1.89009439945220947 -1 -0 -0 1
-0.283156037330627441 0.525746762752532959 -1 -0 -0 1
-0.238916143774986267 0.511168777942657471 -1 -0 -0 1
-0.641713440418243408 2.35717415809631348 -1 -0 -0 1
-0.405123889446258545 1.20570635795593262 -1 -0 -0 1
-0.29722478985786438 0.57573997974395752 -1 -0 -0 1
-0.493917286396026611 1.67702710628509521 -1 -0 -0 1
-0.552884519100189209 1.83201420307159424 -1 -0 -0 1
-0.731250107288360596 2.71790432929992676 -1 -0 -0 1
-0.65046316385269165 2.30382943153381348 -1 -0 -0 1
-0.202807903289794922 0.0946713164448738098 -1 -0 -0 1
-0.45128282904624939 1.45208323001861572 -1 -0 -0 1
-0.630114316940307617 2.24849748611450195 -1 -0 -0 1
-0.180583417415618896 0.226313322782516479 -1 -0 -0 1
-0.428621292114257812 1.38518750667572021 -1 -0 -0 1
-0.71272808313369751 2.66529130935668945 -1 -0 -0 1
-0.510794281959533691 1.61274886131286621 -1 -0 -0 1
-0.23455086350440979 0.285190075635910034 -1 -0 -0 1
-0.764554738998413086 2.89348459243774414 -1 -0 -0 1
-0.358238816261291504 1.02387619018554688 -1 -0 -0 1
-0.476920247077941895 1.56584072113037109 -1 -0 -0 1
-0.296756476163864136 0.728121697902679443 -1 -0 -0 1
-0.344081252813339233 0.926681995391845703 -1 -0 -0 1
-0.895115911960601807 3.488677978515625 -1 -0 -0 1
-0.607508718967437744 2.14389944076538086 -1 -0 -0 1
-0.711253523826599121 3.92814111709594727 -1 -0 -0 1
-0.693596184253692627 2.79667472839355469 -1 -0 -0 1
-0.132700726389884949 2.54215049743652344 -1 -0 -0 1
0.233673602342605591 1.78717446327209473 -1 -0 -0 1
-0.0314874649047851562 3.98676943778991699 -1 -0 -0 1
-0.2279539555311203 1.73925256729125977 -1 -0 -0 1
-0.707987427711486816 3.33385062217712402 -1 -0 -0 1
-0.292621910572052002 2.92967319488525391 -1 -0 -0 1
0.396382927894592285 3.88838505744934082 -1 -0 -0 1
0.383130133152008057 2.0826413631439209 -1 -0 -0 1
0.200471863150596619 1.42367064952850342 -1 -0 -0 1
-0.370974123477935791 1.92562925815582275 -1 -0 -0 1
-0.574632883071899414 3.86052584648132324 -1 -0 -0 1
0.638866841793060303 3.28693413734436035 -1 -0 -0 1
-0.286016494035720825 1.93288445472717285 -1 -0 -0 1
-0.0885690376162528992 0.445819854736328125 -1 -0 -0 1
0.0770353153347969055 2.79424619674682617 -1 -0 -0 1
0.134266555309295654 1.24275660514831543 -1 -0 -0 1
-0.600816249847412109 2.77289295196533203 -1 -0 -0 1
0.602618396282196045 2.4206843376159668 -1 -0 -0 1
0.0358664840459823608 2.11481094360351562 -1 -0 -0 1
0.348154991865158081 2.18064451217651367 -1 -0 -0 1
0.560390472412109375 2.87120389938354492 -1 -0 -0 1
-0.18750801682472229 1.43870675563812256 -1 -0 -0 1
-0.307166367769241333 3.33151125907897949 -1 -0 -0 1
0.714865446090698242 3.69149136543273926 -1 -0 -0 1
-0.263597697019577026 3.59684634208679199 -1 -0 -0 1
-0.0286578387022018433 1.68396246433258057 -1 -0 -0 1
0.433595001697540283 3.60321950912475586 -1 -0 -0 1
-0.374353021383285522 3.08235025405883789 -1 -0 -0 1
-0.384103626012802124 2.87170100212097168 -1 -0 -0 1
0.351824462413787842 1.55835413932800293 -1 -0 -0 1
0.345383405685424805 3.21784377098083496 -1 -0 -0 1
-0.235313311219215393 1.20609450340270996 -1 -0 -0 1
0.16953633725643158 2.1943809986114502 -1 -0 -0 1
-0.368492811918258667 3.35978460311889648 -1 -0 -0 1
0.029390895739197731 3.97473835945129395 -1 -0 -0 1
0.343775480985641479 3.00288820266723633 -1 -0 -0 1
-0.145737290382385254 1.15024936199188232 -1 -0 -0 1
-0.650463283061981201 2.96039032936096191 -1 -0 -0 1
-0.310158759355545044 3.85638260841369629 -1 -0 -0 1
0.0669115334749221802 3.61128449440002441 -1 -0 -0 1
-0.403206288814544678 2.08285689353942871 -1 -0 -0 1
0.508935153484344482 3.31021666526794434 -1 -0 -0 1
0.533793330192565918 2.15303635597229004 -1 -0 -0 1
0.691064238548278809 2.94567632675170898 -1 -0 -0 1
0.403511762619018555 2.18642592430114746 -1 -0 -0 1
-0.071345694363117218 0.75264352560043335 -1 -0 -0 1
0.334863632917404175 2.91825699806213379 -1 -0 -0 1
0.137919262051582336 2.78111481666564941 -1 -0 -0 1
-0.267957776784896851 1.24148917198181152 -1 -0 -0 1
0.0681858435273170471 2.84068512916564941 -1 -0 -0 1
0.280735999345779419 2.12676525115966797 -1 -0 -0 1
0.0285290628671646118 0.723234295845031738 -1 -0 -0 1
-0.179248541593551636 2.89731383323669434 -1 -0 -0 1
-0.158628031611442566 1.68259811401367188 -1 -0 -0 1
0.208236411213874817 2.0389096736907959 -1 -0 -0 1
0.0611201077699661255 0.986146152019500732 -1 -0 -0 1
-0.0458813048899173737 0.323355495929718018 -1 -0 -0 1
0.754936754703521729 3.03127241134643555 -1 -0 -0 1
0.0829667970538139343 3.0645148754119873 -1 -0 -0 1
-0.399458944797515869 2.77271366119384766 -1 -0 -0 1
-0.511238634586334229 3.10031247138977051 -1 -0 -0 1
0.0244597494602203369 2.36520981788635254 -1 -0 -0 1
0.21094001829624176 0.928781569004058838 -1 -0 -0 1
0.915623843669891357 3.74753689765930176 -1 -0 -0 1
0.287018239498138428 2.37517905235290527 -1 -0 -0 1
0.244864195585250854 3.49571371078491211 -1 -0 -0 1
0.136293321847915649 2.33472418785095215 -1 -0 -0 1
-0.186027154326438904 3.90802121162414551 -1 -0 -0 1
-0.25919833779335022 3.19134044647216797 -1 -0 -0 1
-0.0490847006440162659 0.483535140752792358 -1 -0 -0 1
-0.809887230396270752 3.95949578285217285 -1 -0 -0 1
-0.381497174501419067 2.43389725685119629 -1 -0 -0 1
0.447196543216705322 2.2348785400390625 -1 -0 -0 1
0.0943625643849372864 1.55233263969421387 -1 -0 -0 1
0.765830814838409424 3.39168691635131836 -1 -0 -0 1
0.00322208204306662083 3.3153986930847168 -1 -0 -0 1
-0.0342747680842876434 2.15841412544250488 -1 -0 -0 1
-0.5726051926612854 3.09546899795532227 -1 -0 -0 1
-0.146922141313552856 3.44758915901184082 -1 -0 -0 1
-0.309481292963027954 3.59070205688476562 -1 -0 -0 1
-0.89579242467880249 3.67708325386047363 -1 -0 -0 1
0.669721901416778564 3.39282703399658203 -1 -0 -0 1
-0.426918059587478638 3.30844497680664062 -1 -0 -0 1
0.165485590696334839 2.2577064037322998 -1 -0 -0 1
0.0895155146718025208 0.82213127613067627 -1 -0 -0 1
0.0265820547938346863 1.44155228137969971 -1 -0 -0 1
0.560605525970458984 3.82892179489135742 -1 -0 -0 1
0.402858346700668335 2.84004044532775879 -1 -0 -0 1
-0.209696754813194275 3.52216172218322754 -1 -0 -0 1
-0.240538373589515686 1.35394966602325439 -1 -0 -0 1
0.520890414714813232 3.67212820053100586 -1 -0 -0 1
-0.0455975495278835297 1.84267425537109375 -1 -0 -0 1
0.188468754291534424 2.83718180656433105 -1 -0 -0 1
-0.463391989469528198 3.23045086860656738 -1 -0 -0 1
0.45593610405921936 2.37633538246154785 -1 -0 -0 1
0.683759570121765137 3.84936380386352539 -1 -0 -0 1
-0.230435311794281006 1.85159838199615479 -1 -0 -0 1
0.00179385137744247913 3.42194294929504395 -1 -0 -0 1
0.478486061096191406 3.35515499114990234 -1 -0 -0 1
0.394572138786315918 2.72358155250549316 -1 -0 -0 1
0.0924725532531738281 2.72173786163330078 -1 -0 -0 1
-0.514710724353790283 3.46748924255371094 -1 -0 -0 1
-0.511031031608581543 2.49278378486633301 -1 -0 -0 1
-0.42858123779296875 2.26378583908081055 -1 -0 -0 1
0.511061549186706543 2.10241222381591797 -1 -0 -0 1
0.27621886134147644 3.12925505638122559 -1 -0 -0 1
-0.559714138507843018 2.99511003494262695 -1 -0 -0 1
0.0314332619309425354 1.19813168048858643 -1 -0 -0 1
-0.698642432689666748 2.84735822677612305 -1 -0 -0 1
-0.507721424102783203 3.55768680572509766 -1 -0 -0 1
-0.347711533308029175 2.74806332588195801 -1 -0 -0 1
-0.505612313747406006 3.21011519432067871 -1 -0 -0 1
0.297496974468231201 3.07528424263000488 -1 -0 -0 1
0.332745969295501709 3.15155196189880371 -1 -0 -0 1
0.149840891361236572 1.13286590576171875 -1 -0 -0 1
-0.13260166347026825 2.38728642463684082 -1 -0 -0 1
-0.747589945793151855 3.89398646354675293 -1 -0 -0 1
-0.0280903205275535583 0.684246063232421875 -1 -0 -0 1
0.330813735723495483 3.89913082122802734 -1 -0 -0 1
-0.36162799596786499 1.52866446971893311 -1 -0 -0 1
-0.319941014051437378 2.88446402549743652 -1 -0 -0 1
-0.332195252180099487 3.03062891960144043 -1 -0 -0 1
-0.600777208805084229 3.81332302093505859 -1 -0 -0 1
-0.0762526169419288635 3.82337570190429688 -1 -0 -0 1
0.77612459659576416 3.93537044525146484 -1 -0 -0 1
0.018054252490401268 2.0672004222869873 -1 -0 -0 1
-0.0895146727561950684 2.21547460556030273 -1 -0 -0 1
0.16615140438079834 3.643768310546875 -1 -0 -0 1
-0.748214006423950195 3.36948132514953613 -1 -0 -0 1
-0.0194578971713781357 0.437518447637557983 -1 -0 -0 1
0.447607845067977905 3.55232048034667969 -1 -0 -0 1
0.197402656078338623 3.28802585601806641 -1 -0 -0 1
-0.646266758441925049 3.81829476356506348 -1 -0 -0 1
0.331535249948501587 1.67268776893615723 -1 -0 -0 1
0.820218563079833984 3.31769728660583496 -1 -0 -0 1
0.501409947872161865 3.24823713302612305 -1 -0 -0 1
-0.188484609127044678 2.59835958480834961 -1 -0 -0 1
0.540872454643249512 3.97787332534790039 -1 -0 -0 1
0.283101797103881836 3.88095307350158691 -1 -0 -0 1
-0.359175950288772583 2.54371762275695801 -1 -0 -0 1
0.264675319194793701 3.55061960220336914 -1 -0 -0 1
0.0360550247132778168 2.66718840599060059 -1 -0 -0 1
0.0835841521620750427 2.96384525299072266 -1 -0 -0 1
-0.633324265480041504 2.81538820266723633 -1 -0 -0 1
-0.327295184135437012 3.9439389705657959 -1 -0 -0 1
-0.312954545021057129 1.7100595235824585 -1 -0 -0 1
-0.178845152258872986 1.08126962184906006 -1 -0 -0 1
-0.928598880767822266 3.80291557312011719 -1 -0 -0 1
0.649629056453704834 3.70629215240478516 -1 -0 -0 1
-0.545116662979125977 2.31359052658081055 -1 -0 -0 1
0.333889693021774292 3.8509821891784668 -1 -0 -0 1
-0.286738008260726929 2.32726502418518066 -1 -0 -0 1
-0.562854886054992676 2.5758059024810791 -1 -0 -0 1
0.0897842496633529663 1.14286589622497559 -1 -0 -0 1
0.49795842170715332 2.74710536003112793 -1 -0 -0 1
0.113142699003219604 2.6258845329284668 -1 -0 -0 1
-0.65549856424331665 2.63091421127319336 -1 -0 -0 1
-0.0205018967390060425 3.81160092353820801 -1 -0 -0 1
0.247217357158660889 2.56726384162902832 -1 -0 -0 1
-0.23489786684513092 2.34307718276977539 -1 -0 -0 1
0.319489747285842896 2.09290337562561035 -1 -0 -0 1
0.699547290802001953 2.84131693840026855 -1 -0 -0 1
0.258174151182174683 2.30327486991882324 -1 -0 -0 1
0.00696746306493878365 3.68944358825683594 -1 -0 -0 1
0.923361003398895264 3.98173379898071289 -1 -0 -0 1
0.239340439438819885 1.37919330596923828 -1 -0 -0 1
0.365281045436859131 2.29786348342895508 -1 -0 -0 1
-0.445353031158447266 2.46468114852905273 -1 -0 -0 1
-0.152464061975479126 1.38948535919189453 -1 -0 -0 1
0.405690044164657593 3.65486788749694824 -1 -0 -0 1
0.0725890249013900757 0.389157980680465698 -1 -0 -0 1
-0.348832309246063232 2.80945038795471191 -1 -0 -0 1
-0.114283382892608643 2.7356269359588623 -1 -0 -0 1
-0.105945102870464325 0.567678093910217285 -1 -0 -0 1
0.161313310265541077 2.88582897186279297 -1 -0 -0 1
0.603850662708282471 3.6948094367980957 -1 -0 -0 1
-0.15222679078578949 3.24290299415588379 -1 -0 -0 1
-0.536200165748596191 3.88576436042785645 -1 -0 -0 1
-0.556674838066101074 2.51343512535095215 -1 -0 -0 1
0.587670087814331055 2.65379595756530762 -1 -0 -0 1
-0.34068530797958374 2.27910232543945312 -1 -0 -0 1
-0.041886601597070694 0.38489338755607605 -1 -0 -0 1
-0.459194004535675049 3.08403563499450684 -1 -0 -0 1
-0.644116818904876709 3.25531339645385742 -1 -0 -0 1
0.23242504894733429 2.19852066040039062 -1 -0 -0 1
-0.57228928804397583 3.92660880088806152 -1 -0 -0 1
0.107904687523841858 3.64958548545837402 -1 -0 -0 1
-0.548077821731567383 2.26116418838500977 -1 -0 -0 1
0.673346281051635742 2.88643264770507812 -1 -0 -0 1
-0.0138444723561406136 0.601818442344665527 -1 -0 -0 1
-0.684819638729095459 3.70191121101379395 -1 -0 -0 1
-0.346632868051528931 3.45345401763916016 -1 -0 -0 1
-0.433371543884277344 1.85348260402679443 -1 -0 -0 1
0.470573961734771729 2.81432223320007324 -1 -0 -0 1
0.0272160172462463379 0.573149979114532471 -1 -0 -0 1
0.263019710779190063 3.31522798538208008 -1 -0 -0 1
0.271835952997207642 2.17558908462524414 -1 -0 -0 1
-0.358348160982131958 3.90277194976806641 -1 -0 -0 1
-0.676741123199462891 3.09154796600341797 -1 -0 -0 1
0.125646024942398071 3.90152168273925781 -1 -0 -0 1
0.213513404130935669 2.65383601188659668 -1 -0 -0 1
0.00838543940335512161 1.24953925609588623 -1 -0 -0 1
-0.550470232963562012 3.42131209373474121 -1 -0 -0 1
0.467749178409576416 3.5036170482635498 -1 -0 -0 1
-0.751782536506652832 3.47109794616699219 -1 -0 -0 1
-0.161531597375869751 3.0382692813873291 -1 -0 -0 1
-0.770453453063964844 3.84793496131896973 -1 -0 -0 1
0.647269487380981445 2.83107399940490723 -1 -0 -0 1
0.366539865732192993 3.75832080841064453 -1 -0 -0 1
0.662318944931030273 2.75644207000732422 -1 -0 -0 1
0.906004190444946289 3.88968014717102051 -1 -0 -0 1
-0.392543435096740723 3.02432632446289062 -1 -0 -0 1
-0.194907784461975098 0.860204815864562988 -1 -0 -0 1
-0.846929371356964111 3.45412778854370117 -1 -0 -0 1
-0.599652886390686035 2.61172366142272949 -1 -0 -0 1
-0.287263751029968262 1.58823227882385254 -1 -0 -0 1
0.119834311306476593 2.25070619583129883 -1 -0 -0 1
0.116397947072982788 3.29504895210266113 -1 -0 -0 1
0.252955019474029541 1.44998347759246826 -1 -0 -0 1
-0.128272160887718201 1.48234796524047852 -1 -0 -0 1
-0.54529881477355957 3.24314379692077637 -1 -0 -0 1
0.166495427489280701 0.973808646202087402 -1 -0 -0 1
0.389900445938110352 1.69280195236206055 -1 -0 -0 1
0.262314289808273315 3.7270655632019043 -1 -0 -0 1
-0.0937180370092391968 2.49622488021850586 -1 -0 -0 1
0.535296499729156494 3.92397546768188477 -1 -0 -0 1
-0.0197931192815303802 3.86532187461853027 -1 -0 -0 1
0.03935975581407547 1.35326159000396729 -1 -0 -0 1
-0.169105947017669678 1.83499467372894287 -1 -0 -0 1
0.619467377662658691 3.5775909423828125 -1 -0 -0 1
0.304086446762084961 1.78525936603546143 -1 -0 -0 1
-0.11364118754863739 2.89911079406738281 -1 -0 -0 1
-0.0344658456742763519 2.71851658821105957 -1 -0 -0 1
-0.527676403522491455 3.15308475494384766 -1 -0 -0 1
-0.323493480682373047 1.30701839923858643 -1 -0 -0 1
-0.220736533403396606 3.23721408843994141 -1 -0 -0 1
-0.547080278396606445 3.77788448333740234 -1 -0 -0 1
-0.510150790214538574 2.22582411766052246 -1 -0 -0 1
0.0721471384167671204 2.3917853832244873 -1 -0 -0 1
0.0229914598166942596 1.29823386669158936 -1 -0 -0 1
-0.390932381153106689 2.0297093391418457 -1 -0 -0 1
0.134732037782669067 3.99825954437255859 -1 -0 -0 1
0.4158516526222229 3.07012462615966797 -1 -0 -0 1
-0.536663830280303955 2.15509128570556641 -1 -0 -0 1
-0.458748221397399902 1.93131792545318604 -1 -0 -0 1
0.304126232862472534 2.96068072319030762 -1 -0 -0 1
-0.536068081855773926 3.30095624923706055 -1 -0 -0 1
0.166187375783920288 0.675969839096069336 -1 -0 -0 1
-0.366320401430130005 2.61031937599182129 -1 -0 -0 1
0.152614742517471313 1.61291861534118652 -1 -0 -0 1
-0.491335183382034302 2.84039139747619629 -1 -0 -0 1
-0.382987678050994873 3.25530028343200684 -1 -0 -0 1
0.381208479404449463 1.95231294631958008 -1 -0 -0 1
-0.323975622653961182 1.78605973720550537 -1 -0 -0 1
0.0246064495295286179 3.02097105979919434 -1 -0 -0 1
0.471755117177963257 2.4982907772064209 -1 -0 -0 1
0.449196517467498779 2.13153243064880371 -1 -0 -0 1
0.64310908317565918 2.95639562606811523 -1 -0 -0 1
-0.466149479150772095 3.13623213768005371 -1 -0 -0 1
-0.386094212532043457 2.14465475082397461 -1 -0 -0 1
0.31547921895980835 3.39618754386901855 -1 -0 -0 1
-0.0746443644165992737 2.287628173828125 -1 -0 -0 1
0.313485682010650635 1.96401965618133545 -1 -0 -0 1
-0.409270882606506348 3.67566871643066406 -1 -0 -0 1
0.335616946220397949 1.50403952598571777 -1 -0 -0 1
-0.210300520062446594 1.80740118026733398 -1 -0 -0 1
-0.0868126899003982544 3.90721225738525391 -1 -0 -0 1
0.274323701858520508 1.83135199546813965 -1 -0 -0 1
0.156472682952880859 1.36526668071746826 -1 -0 -0 1
0.522875785827636719 2.5488896369934082 -1 -0 -0 1
-0.100963197648525238 2.97671246528625488 -1 -0 -0 1
0.668764948844909668 3.07491683959960938 -1 -0 -0 1
-0.788757622241973877 3.54262948036193848 -1 -0 -0 1
0.380031824111938477 3.38679218292236328 -1 -0 -0 1
-0.123089790344238281 2.33041763305664062 -1 -0 -0 1
0.190654098987579346 3.03554606437683105 -1 -0 -0 1
0.345648199319839478 2.47119474411010742 -1 -0 -0 1
-0.6427345871925354 2.7115938663482666 -1 -0 -0 1
0.439497381448745728 3.43000888824462891 -1 -0 -0 1
0.178609013557434082 2.0963137149810791 -1 -0 -0 1
0.228871330618858337 2.74164152145385742 -1 -0 -0 1
-0.366967678070068359 3.56899476051330566 -1 -0 -0 1
0.320499271154403687 1.34097743034362793 -1 -0 -0 1
0.527203202247619629 3.05783224105834961 -1 -0 -0 1
-0.177858322858810425 1.54451847076416016 -1 -0 -0 1
-0.113024055957794189 2.60606217384338379 -1 -0 -0 1
0.733764886856079102 3.32692694664001465 -1 -0 -0 1
0.139127776026725769 3.70245766639709473 -1 -0 -0 1
-0.0561697110533714294 1.32165217399597168 -1 -0 -0 1
0.0772502869367599487 3.15762639045715332 -1 -0 -0 1
0.101894617080688477 0.595313608646392822 -1 -0 -0 1
-0.0595339760184288025 1.09987914562225342 -1 -0 -0 1
0.0809040814638137817 2.2960057258605957 -1 -0 -0 1
-0.264714181423187256 1.99502980709075928 -1 -0 -0 1
0.364366203546524048 2.5146033763885498 -1 -0 -0 1
-0.353936612606048584 2.93608832359313965 -1 -0 -0 1
0.490346521139144897 3.0113985538482666 -1 -0 -0 1
-0.775470912456512451 3.11447286605834961 -1 -0 -0 1
-0.187763705849647522 3.84076690673828125 -1 -0 -0 1
-0.587077319622039795 3.2955939769744873 -1 -0 -0 1
0.175037160515785217 3.3591153621673584 -1 -0 -0 1
-0.224880516529083252 0.950351297855377197 -1 -0 -0 1
0.362633317708969116 2.80527925491333008 -1 -0 -0 1
0.0102218259125947952 0.990734279155731201 -1 -0 -0 1
-0.0132164247334003448 2.29274106025695801 -1 -0 -0 1
-0.351488649845123291 2.33059287071228027 -1 -0 -0 1
0.351153969764709473 2.03348350524902344 -1 -0 -0 1
0.223456814885139465 1.04238355159759521 -1 -0 -0 1
0.127398222684860229 1.89520728588104248 -1 -0 -0 1
0.620249807834625244 3.41000890731811523 -1 -0 -0 1
0.400487005710601807 3.55879545211791992 -1 -0 -0 1
0.167352154850959778 3.52451586723327637 -1 -0 -0 1
-0.292720586061477661 3.90457749366760254 -1 -0 -0 1
-0.123103432357311249 0.841864883899688721 -1 -0 -0 1
0.0264777690172195435 2.81727266311645508 -1 -0 -0 1
-0.368588924407958984 2.38311028480529785 -1 -0 -0 1
-0.213168933987617493 2.70018696784973145 -1 -0 -0 1
-0.248401731252670288 3.80330777168273926 -1 -0 -0 1
-0.857038378715515137 3.98701834678649902 -1 -0 -0 1
0.222676843404769897 2.79141902923583984 -1 -0 -0 1
0.596541225910186768 2.77420163154602051 -1 -0 -0 1
-0.413290202617645264 1.90760409832000732 -1 -0 -0 1
0.405133694410324097 2.53826117515563965 -1 -0 -0 1
-0.27193865180015564 2.68911433219909668 -1 -0 -0 1
-0.74001777172088623 3.23095011711120605 -1 -0 -0 1
-0.0351564176380634308 0.858896970748901367 -1 -0 -0 1
-0.945597708225250244 3.95219016075134277 -1 -0 -0 1
-0.0218541417270898819 1.78600955009460449 -1 -0 -0 1
0.113361746072769165 3.10625052452087402 -1 -0 -0 1
0.600174665451049805 2.49164462089538574 -1 -0 -0 1
-0.0823770537972450256 0.874082326889038086 -1 -0 -0 1
-0.539979159832000732 3.36969161033630371 -1 -0 -0 1
0.10092424601316452 0.714209616184234619 -1 -0 -0 1
0.173809736967086792 3.41174459457397461 -1 -0 -0 1
0.769515931606292725 3.73122882843017578 -1 -0 -0 1
-0.0368223562836647034 2.36146426200866699 -1 -0 -0 1
-0.176466807723045349 1.23193371295928955 -1 -0 -0 1
-0.376472413539886475 3.41702723503112793 -1 -0 -0 1
0.448365330696105957 3.93406462669372559 -1 -0 -0 1
-0.120258614420890808 2.44766020774841309 -1 -0 -0 1
-0.569359898567199707 2.86650896072387695 -1 -0 -0 1
0.0159006305038928986 0.400713473558425903 -1 -0 -0 1
0.494512081146240234 2.00923442840576172 -1 -0 -0 1
-0.214018672704696655 3.59733128547668457 -1 -0 -0 1
0.116992846131324768 1.08468496799468994 -1 -0 -0 1
0.0365607403218746185 2.59713363647460938 -1 -0 -0 1
-0.90381920337677002 3.9778602123260498 -1 -0 -0 1
0.804420292377471924 3.25423479080200195 -1 -0 -0 1
0.28488767147064209 2.8914792537689209 -1 -0 -0 1
-0.471988886594772339 3.64872384071350098 -1 -0 -0 1
0.0613119415938854218 1.66665899753570557 -1 -0 -0 1
0.815785884857177734 3.687744140625 -1 -0 -0 1
0.0542555451393127441 3.43036198616027832 -1 -0 -0 1
0.541432023048400879 2.77521228790283203 -1 -0 -0 1
0.255531102418899536 1.74717426300048828 -1 -0 -0 1
-0.635207474231719971 3.41869139671325684 -1 -0 -0 1
-0.795160591602325439 3.4976956844329834 -1 -0 -0 1
-0.657230794429779053 3.16181135177612305 -1 -0 -0 1
-0.254520654678344727 1.15520226955413818 -1 -0 -0 1
0.26750829815864563 2.70658564567565918 -1 -0 -0 1
-0.08233613520860672 1.91502046585083008 -1 -0 -0 1
0.191811442375183105 3.19391393661499023 -1 -0 -0 1
0.102141477167606354 1.34657704830169678 -1 -0 -0 1
0.259603649377822876 1.58540987968444824 -1 -0 -0 1
0.047583557665348053 2.46009206771850586 -1 -0 -0 1
-0.0728848353028297424 1.46594750881195068 -1 -0 -0 1
0.157103031873703003 1.29235148429870605 -1 -0 -0 1
-0.157124355435371399 2.69443845748901367 -1 -0 -0 1
-0.224071219563484192 3.30583477020263672 -1 -0 -0 1
-0.0444731637835502625 2.85932064056396484 -1 -0 -0 1
-0.722162306308746338 3.05235624313354492 -1 -0 -0 1
0.85047537088394165 3.9861752986907959 -1 -0 -0 1
0.109226018190383911 1.49532783031463623 -1 -0 -0 1
0.708333075046539307 2.99581503868103027 -1 -0 -0 1
-0.281792372465133667 3.05511355400085449 -1 -0 -0 1
0.248938009142875671 3.94134998321533203 -1 -0 -0 1
0.0521407909691333771 2.54832816123962402 -1 -0 -0 1
-0.139422833919525146 1.57897233963012695 -1 -0 -0 1
0.148386925458908081 2.39426493644714355 -1 -0 -0 1
-0.13053324818611145 2.8475654125213623 -1 -0 -0 1
-0.495704680681228638 3.76206493377685547 -1 -0 -0 1
-0.486406683921813965 3.02026987075805664 -1 -0 -0 1
-0.751358509063720703 3.98574161529541016 -1 -0 -0 1
0.425495654344558716 3.72233200073242188 -1 -0 -0 1
0.293767839670181274 2.59126043319702148 -1 -0 -0 1
0.255295068025588989 2.25514459609985352 -1 -0 -0 1
0.127408593893051147 1.43455743789672852 -1 -0 -0 1
0.374875396490097046 1.75159740447998047 -1 -0 -0 1
0.064875580370426178 3.30693268775939941 -1 -0 -0 1
-0.879085123538970947 3.8540656566619873 -1 -0 -0 1
-0.381538540124893188 3.75180983543395996 -1 -0 -0 1
0.749062597751617432 3.65328550338745117 -1 -0 -0 1
-0.28722795844078064 2.55553913116455078 -1 -0 -0 1
-0.0752226114273071289 0.821181774139404297 -1 -0 -0 1
0.865423023700714111 3.74994778633117676 -1 -0 -0 1
-0.0338303670287132263 2.65255236625671387 -1 -0 -0 1
0.10643865168094635 3.85216808319091797 -1 -0 -0 1
0.277011185884475708 3.18454909324645996 -1 -0 -0 1
-0.0137253748252987862 3.06180906295776367 -1 -0 -0 1
-0.123389415442943573 2.65243196487426758 -1 -0 -0 1
0.143729925155639648 1.53710842132568359 -1 -0 -0 1
-0.181888416409492493 1.31724298000335693 -1 -0 -0 1
-0.18400438129901886 1.1827622652053833 -1 -0 -0 1
0.762398362159729004 3.48748040199279785 -1 -0 -0 1
-0.319494336843490601 3.54273247718811035 -1 -0 -0 1
-0.124912574887275696 3.69271183013916016 -1 -0 -0 1
0.502847671508789062 3.55752110481262207 -1 -0 -0 1
0.170840054750442505 3.86241841316223145 -1 -0 -0 1
-0.103916525840759277 1.9663466215133667 -1 -0 -0 1
0.24529990553855896 3.60651421546936035 -1 -0 -0 1
-0.281892448663711548 2.83048677444458008 -1 -0 -0 1
0.24831196665763855 1.14020860195159912 -1 -0 -0 1
-0.678613245487213135 3.21059799194335938 -1 -0 -0 1
0.157671794295310974 0.915760993957519531 -1 -0 -0 1
0.536781668663024902 3.35965323448181152 -1 -0 -0 1
-0.145527049899101257 3.52063822746276855 -1 -0 -0 1
0.539761960506439209 3.1592261791229248 -1 -0 -0 1
-0.374663978815078735 2.23328638076782227 -1 -0 -0 1
0.158247530460357666 2.55468034744262695 -1 -0 -0 1
0.436199486255645752 3.77767753601074219 -1 -0 -0 1
-0.100604303181171417 1.55047237873077393 -1 -0 -0 1
0.19861970841884613 2.39030098915100098 -1 -0 -0 1
0.634255290031433105 2.70948934555053711 -1 -0 -0 1
-0.149956449866294861 0.663475751876831055 -1 -0 -0 1
0.215563014149665833 3.080474853515625 -1 -0 -0 1
-0.473651498556137085 2.28849387168884277 -1 -0 -0 1
-0.950958073139190674 3.86812067031860352 -1 -0 -0 1
-0.75069195032119751 3.30874919891357422 -1 -0 -0 1
-0.361902475357055664 1.46381700038909912 -1 -0 -0 1
0.722466170787811279 3.94030380249023438 -1 -0 -0 1
-0.016807282343506813 1.37125599384307861 -1 -0 -0 1
-0.0675666406750679016 2.59094762802124023 -1 -0 -0 1
0.0390477366745471954 1.77761411666870117 -1 -0 -0 1
-0.0521338917315006256 0.961332321166992188 -1 -0 -0 1
0.386723697185516357 2.12971258163452148 -1 -0 -0 1
0.513286471366882324 2.39032649993896484 -1 -0 -0 1
0.0323507301509380341 0.236313268542289734 -1 -0 -0 1
0.39829602837562561 3.83060550689697266 -1 -0 -0 1
-0.315582633018493652 2.23491239547729492 -1 -0 -0 1
-0.0135061098262667656 3.57047486305236816 -1 -0 -0 1
0.440580070018768311 3.1623680591583252 -1 -0 -0 1
0.0915639623999595642 1.79712605476379395 -1 -0 -0 1
0.837982535362243652 3.80716991424560547 -1 -0 -0 1
-0.589290440082550049 3.21438503265380859 -1 -0 -0 1
-0.61201101541519165 3.75575065612792969 -1 -0 -0 1
0.0426116958260536194 3.65784931182861328 -1 -0 -0 1
-0.462985068559646606 2.51620244979858398 -1 -0 -0 1
-0.594143152236938477 3.4992218017578125 -1 -0 -0 1
-0.24417559802532196 3.00639677047729492 -1 -0 -0 1
0.0717583149671554565 2.03672146797180176 -1 -0 -0 1
0.654054820537567139 3.7978823184967041 -1 -0 -0 1
0.368961304426193237 3.10783553123474121 -1 -0 -0 1
0.401217788457870483 1.61564803123474121 -1 -0 -0 1
0.566346228122711182 3.88229823112487793 -1 -0 -0 1
-0.54183495044708252 2.80240821838378906 -1 -0 -0 1
0.0329892560839653015 3.14931607246398926 -1 -0 -0 1
0.367127656936645508 3.51271891593933105 -1 -0 -0 1
0.383246839046478271 2.34054470062255859 -1 -0 -0 1
0.0663034990429878235 1.91883683204650879 -1 -0 -0 1
-0.0774629786610603333 0.607276320457458496 -1 -0 -0 1
-0.0820188075304031372 0.667848944664001465 -1 -0 -0 1
-0.321369260549545288 3.75479316711425781 -1 -0 -0 1
0.862097024917602539 3.51632547378540039 -1 -0 -0 1
0.816719532012939453 3.73971986770629883 -1 -0 -0 1
0.625524759292602539 3.92091751098632812 -1 -0 -0 1
0.39124026894569397 3.26255154609680176 -1 -0 -0 1
0.0743462592363357544 3.8084874153137207 -1 -0 -0 1
-0.617240548133850098 2.90105032920837402 -1 -0 -0 1
0.473367810249328613 2.06805562973022461 -1 -0 -0 1
0.132534250617027283 1.67646574974060059 -1 -0 -0 1
-0.627251505851745605 3.96840167045593262 -1 -0 -0 1
-0.482177436351776123 3.28965616226196289 -1 -0 -0 1
-0.315946638584136963 2.49982929229736328 -1 -0 -0 1
-0.0294964462518692017 2.53339219093322754 -1 -0 -0 1
-0.311262220144271851 1.4777834415435791 -1 -0 -0 1
0.217338919639587402 2.50495696067810059 -1 -0 -0 1
-0.1997109055519104 3.78952360153198242 -1 -0 -0 1
0.0871739238500595093 1.85977065563201904 -1 -0 -0 1
0.446994572877883911 2.76381516456604004 -1 -0 -0 1
0.29031670093536377 2.45162820816040039 -1 -0 -0 1
0.213451966643333435 3.23928260803222656 -1 -0 -0 1
-0.545531094074249268 2.65232467651367188 -1 -0 -0 1
0.00503665022552013397 0.503800272941589355 -1 -0 -0 1
0.560047149658203125 2.71728157997131348 -1 -0 -0 1
-0.438158154487609863 3.41820549964904785 -1 -0 -0 1
0.566412985324859619 3.29217219352722168 -1 -0 -0 1
0.168567940592765808 1.99459969997406006 -1 -0 -0 1
0.00339572294615209103 1.86698520183563232 -1 -0 -0 1
0.602138280868530273 3.79099750518798828 -1 -0 -0 1
0.0225955694913864136 0.647469401359558105 -1 -0 -0 1
0.718743205070495605 3.37627840042114258 -1 -0 -0 1
-0.235206261277198792 2.6156609058380127 -1 -0 -0 1
0.130862146615982056 2.10087490081787109 -1 -0 -0 1
0.555615484714508057 3.63924121856689453 -1 -0 -0 1
-0.114059798419475555 3.60670161247253418 -1 -0 -0 1
-0.64692223072052002 3.67557883262634277 -1 -0 -0 1
0.0837746709585189819 0.64384990930557251 -1 -0 -0 1
-0.0488002337515354156 2.77280449867248535 -1 -0 -0 1
0.20140451192855835 1.65409374237060547 -1 -0 -0 1
-0.2489490807056427 1.30461311340332031 -1 -0 -0 1
0.285702288150787354 1.20680403709411621 -1 -0 -0 1
0.630344092845916748 3.87456750869750977 -1 -0 -0 1
-0.591743052005767822 3.03930568695068359 -1 -0 -0 1
0.336648285388946533 3.69135689735412598 -1 -0 -0 1
0.471433490514755249 2.44015812873840332 -1 -0 -0 1
-0.254730582237243652 2.2590937614440918 -1 -0 -0 1
-0.403737187385559082 2.72285842895507812 -1 -0 -0 1
-0.439675331115722656 2.9692084789276123 -1 -0 -0 1
0.240175902843475342 1.08817124366760254 -1 -0 -0 1
0.733607888221740723 3.44983696937561035 -1 -0 -0 1
-0.36856001615524292 3.61577892303466797 -1 -0 -0 1
0.00199905992485582829 1.98151051998138428 -1 -0 -0 1
0.57318413257598877 3.1952369213104248 -1 -0 -0 1
0.53401637077331543 2.29276323318481445 -1 -0 -0 1
-0.338251471519470215 3.18301916122436523 -1 -0 -0 1
0.74888843297958374 3.59507536888122559 -1 -0 -0 1
0.0131507869809865952 3.26530718803405762 -1 -0 -0 1
-0.514373719692230225 3.93633008003234863 -1 -0 -0 1
-0.0729887410998344421 3.04021859169006348 -1 -0 -0 1
0.214786738157272339 3.90419149398803711 -1 -0 -0 1
-0.126119717955589294 2.12030291557312012 -1 -0 -0 1
-0.62751471996307373 2.51143193244934082 -1 -0 -0 1
0.3549785315990448 3.63152408599853516 -1 -0 -0 1
0.837321221828460693 3.93335270881652832 -1 -0 -0 1
0.763985872268676758 3.82067108154296875 -1 -0 -0 1
0.141511455178260803 0.823307514190673828 -1 -0 -0 1
-0.268612414598464966 3.50966525077819824 -1 -0 -0 1
0.0556800998747348785 2.90968418121337891 -1 -0 -0 1
0.0802320018410682678 1.22563862800598145 -1 -0 -0 1
0.558577358722686768 2.40533971786499023 -1 -0 -0 1
-0.0655825510621070862 2.42722606658935547 -1 -0 -0 1
0.231270089745521545 1.69494116306304932 -1 -0 -0 1
0.205609053373336792 3.46525979042053223 -1 -0 -0 1
0.22615368664264679 2.14059615135192871 -1 -0 -0 1
-0.243197083473205566 1.66396141052246094 -1 -0 -0 1
0.0611672587692737579 1.50617027282714844 -1 -0 -0 1
-0.773913562297821045 3.18034148216247559 -1 -0 -0 1
-0.014941762201488018 3.76508140563964844 -1 -0 -0 1
0.518260359764099121 2.46924185752868652 -1 -0 -0 1
-0.11976892501115799 1.10768544673919678 -1 -0 -0 1
0.276901721954345703 1.67090415954589844 -1 -0 -0 1
0.7925528883934021 3.8856356143951416 -1 -0 -0 1
-0.573631167411804199 3.57450175285339355 -1 -0 -0 1
-0.901243090629577637 3.89631485939025879 -1 -0 -0 1
0.164519116282463074 3.74624395370483398 -1 -0 -0 1
0.401054978370666504 2.4018559455871582 -1 -0 -0 1
0.0215811002999544144 1.12306606769561768 -1 -0 -0 1
0.0714192911982536316 3.72906398773193359 -1 -0 -0 1
0.00593332760035991669 0.828069031238555908 -1 -0 -0 1
-0.132232636213302612 3.99455523490905762 -1 -0 -0 1
-0.0832797139883041382 2.6794126033782959 -1 -0 -0 1
0.128442674875259399 3.56821560859680176 -1 -0 -0 1
-0.193260118365287781 0.984269618988037109 -1 -0 -0 1
0.971135258674621582 3.94776582717895508 -1 -0 -0 1
0.521685123443603516 3.71922588348388672 -1 -0 -0 1
0.307451874017715454 2.74938225746154785 -1 -0 -0 1
0.608670592308044434 3.64387226104736328 -1 -0 -0 1
0.0613929703831672668 1.61473989486694336 -1 -0 -0 1
-0.134665057063102722 3.12448740005493164 -1 -0 -0 1
-0.0658768638968467712 1.64638042449951172 -1 -0 -0 1
0.591310679912567139 3.95994257926940918 -1 -0 -0 1
-0.232255995273590088 2.39497113227844238 -1 -0 -0 1
0.411216437816619873 2.02290606498718262 -1 -0 -0 1
0.492004036903381348 3.4040381908416748 -1 -0 -0 1
-0.489634782075881958 2.93396234512329102 -1 -0 -0 1
-0.720580995082855225 3.64702224731445312 -1 -0 -0 1
-0.25465354323387146 1.4892280101776123 -1 -0 -0 1
0.142251282930374146 3.06441879272460938 -1 -0 -0 1
0.22441689670085907 2.99641633033752441 -1 -0 -0 1
0.178853154182434082 2.71477437019348145 -1 -0 -0 1
-0.245188057422637939 3.8720095157623291 -1 -0 -0 1
-0.0235013440251350403 0.733015179634094238 -1 -0 -0 1
0.30225178599357605 3.65816974639892578 -1 -0 -0 1
0.282858163118362427 2.64455461502075195 -1 -0 -0 1
-0.26272919774055481 2.4734041690826416 -1 -0 -0 1
-0.234135657548904419 1.95134651660919189 -1 -0 -0 1
0.416736215353012085 2.92332100868225098 -1 -0 -0 1
-0.183678269386291504 2.83000326156616211 -1 -0 -0 1
-0.293174922466278076 1.19055509567260742 -1 -0 -0 1
-0.241227433085441589 2.52759909629821777 -1 -0 -0 1
0.624462604522705078 3.19622325897216797 -1 -0 -0 1
0.316278517246246338 1.60115563869476318 -1 -0 -0 1
0.185672655701637268 2.32346010208129883 -1 -0 -0 1
-0.142024040222167969 2.22290968894958496 -1 -0 -0 1
-0.0205896869301795959 2.43911457061767578 -1 -0 -0 1
-0.491624325513839722 2.74629545211791992 -1 -0 -0 1
-0.645658969879150391 3.03420662879943848 -1 -0 -0 1
0.0506794825196266174 1.96289229393005371 -1 -0 -0 1
0.0267931204289197922 0.77633965015411377 -1 -0 -0 1
-0.173345953226089478 3.63060951232910156 -1 -0 -0 1
-0.100062742829322815 0.9579123854637146 -1 -0 -0 1
0.517396271228790283 3.10817360877990723 -1 -0 -0 1
0.115622326731681824 1.72406423091888428 -1 -0 -0 1
0.325249940156936646 2.34021210670471191 -1 -0 -0 1
0.105299495160579681 2.52289891242980957 -1 -0 -0 1
-0.0791986435651779175 3.14917182922363281 -1 -0 -0 1
-0.449595779180526733 3.9336249828338623 -1 -0 -0 1
0.0306811109185218811 1.5714341402053833 -1 -0 -0 1
-0.227256819605827332 2.13522434234619141 -1 -0 -0 1
0.289734810590744019 1.53808212280273438 -1 -0 -0 1
-0.693319439888000488 2.89456319808959961 -1 -0 -0 1
0.23623928427696228 2.8695530891418457 -1 -0 -0 1
0.108488336205482483 2.42834377288818359 -1 -0 -0 1
-0.0597196854650974274 1.98997819423675537 -1 -0 -0 1
-0.163522377610206604 0.942984998226165771 -1 -0 -0 1
0.400678664445877075 3.02120494842529297 -1 -0 -0 1
0.0651737302541732788 2.21729326248168945 -1 -0 -0 1
-0.698642075061798096 3.00147652626037598 -1 -0 -0 1
-0.0762828439474105835 3.48601055145263672 -1 -0 -0 1
-0.423983305692672729 2.40829324722290039 -1 -0 -0 1
0.137333974242210388 1.01194107532501221 -1 -0 -0 1
-0.248986989259719849 2.18208646774291992 -1 -0 -0 1
0.423925071954727173 2.97814488410949707 -1 -0 -0 1
0.00712266378104686737 0.290779203176498413 -1 -0 -0 1
-0.45362207293510437 2.79287433624267578 -1 -0 -0 1
0.462436407804489136 2.17843151092529297 -1 -0 -0 1
-0.692441046237945557 3.28358268737792969 -1 -0 -0 1
0.0659101977944374084 0.512201666831970215 -1 -0 -0 1
0.244286790490150452 3.82669544219970703 -1 -0 -0 1
-0.652757048606872559 3.3629755973815918 -1 -0 -0 1
-0.0384365133941173553 3.92432355880737305 -1 -0 -0 1
0.102900922298431396 3.38652920722961426 -1 -0 -0 1
-0.271248728036880493 3.73543286323547363 -1 -0 -0 1
-0.600547432899475098 2.95178079605102539 -1 -0 -0 1
0.353235989809036255 2.3887486457824707 -1 -0 -0 1
-0.202576771378517151 3.18747329711914062 -1 -0 -0 1
-0.197238698601722717 2.02149057388305664 -1 -0 -0 1
0.388337075710296631 1.90610527992248535 -1 -0 -0 1
0.16628614068031311 2.95371460914611816 -1 -0 -0 1
0.625202655792236328 3.35250711441040039 -1 -0 -0 1
0.52621382474899292 2.66965270042419434 -1 -0 -0 1
0.337785392999649048 3.55457401275634766 -1 -0 -0 1
-0.586760938167572021 2.46237778663635254 -1 -0 -0 1
0.396985799074172974 2.60737800598144531 -1 -0 -0 1
0.654658854007720947 3.24054098129272461 -1 -0 -0 1
0.172337308526039124 2.46398448944091797 -1 -0 -0 1
0.605948388576507568 3.02409219741821289 -1 -0 -0 1
-0.842634022235870361 3.68322420120239258 -1 -0 -0 1
-0.297911137342453003 1.43201589584350586 -1 -0 -0 1
0.122239597141742706 0.94550025463104248 -1 -0 -0 1
0.0397356562316417694 2.75527572631835938 -1 -0 -0 1
-0.738621771335601807 3.71626734733581543 -1 -0 -0 1
-0.276459276676177979 1.74689483642578125 -1 -0 -0 1
-0.359571337699890137 1.87217962741851807 -1 -0 -0 1
-0.178429514169692993 2.10723137855529785 -1 -0 -0 1
0.179032593965530396 1.86132967472076416 -1 -0 -0 1
-0.150542408227920532 0.613340318202972412 -1 -0 -0 1
0.170565798878669739 1.05749249458312988 -1 -0 -0 1
-0.113609872758388519 3.84917235374450684 -1 -0 -0 1
0.295724570751190186 3.58396553993225098 -1 -0 -0 1
-0.344993114471435547 2.69991612434387207 -1 -0 -0 1
-0.0651126503944396973 3.40998935699462891 -1 -0 -0 1
0.428317904472351074 2.68691778182983398 -1 -0 -0 1
-0.177967771887779236 0.777939021587371826 -1 -0 -0 1
-0.137128442525863647 1.05379605293273926 -1 -0 -0 1
-0.220187082886695862 1.11981070041656494 -1 -0 -0 1
0.358925342559814453 3.99662613868713379 -1 -0 -0 1
-0.359220355749130249 3.80335330963134766 -1 -0 -0 1
-0.512255072593688965 2.97529029846191406 -1 -0 -0 1
-0.507241308689117432 2.35199594497680664 -1 -0 -0 1
0.0780519694089889526 3.91885900497436523 -1 -0 -0 1
0.131976813077926636 2.84104514122009277 -1 -0 -0 1
0.317651689052581787 1.39087069034576416 -1 -0 -0 1
-0.0543866977095603943 3.71700787544250488 -1 -0 -0 1
-0.14593227207660675 0.716750979423522949 -1 -0 -0 1
0.636261820793151855 3.50420355796813965 -1 -0 -0 1
-0.0910407081246376038 3.74841666221618652 -1 -0 -0 1
-0.647004306316375732 2.86619901657104492 -1 -0 -0 1
0.0992568656802177429 3.48156046867370605 -1 -0 -0 1
-0.29444199800491333 3.1362004280090332 -1 -0 -0 1
-0.351806879043579102 3.30837845802307129 -1 -0 -0 1
-0.137079566717147827 3.801361083984375 -1 -0 -0 1
0.156591355800628662 3.24683761596679688 -1 -0 -0 1
0.430533379316329956 1.83326959609985352 -1 -0 -0 1
-0.0283669959753751755 1.44527161121368408 -1 -0 -0 1
-0.420730680227279663 1.72520053386688232 -1 -0 -0 1
0.868360221385955811 3.5725398063659668 -1 -0 -0 1
0.512663125991821289 3.4666895866394043 -1 -0 -0 1
-0.0239430107176303864 2.90874743461608887 -1 -0 -0 1
0.418965041637420654 3.30236291885375977 -1 -0 -0 1
-0.537305474281311035 3.82942461967468262 -1 -0 -0 1
0.29305616021156311 2.04211139678955078 -1 -0 -0 1
0.0478281378746032715 3.21089768409729004 -1 -0 -0 1
-0.107788875699043274 1.18922281265258789 -1 -0 -0 1
-0.0955148711800575256 1.03081560134887695 -1 -0 -0 1
-0.730442166328430176 3.1615750789642334 -1 -0 -0 1
-0.0405858606100082397 3.1151280403137207 -1 -0 -0 1
-0.144601821899414062 3.18087267875671387 -1 -0 -0 1
0.575305759906768799 2.60669136047363281 -1 -0 -0 1
-0.801798462867736816 3.38561820983886719 -1 -0 -0 1
0.0214808322489261627 0.922769665718078613 -1 -0 -0 1
0.261870115995407104 2.82798218727111816 -1 -0 -0 1
-0.0207572560757398605 2.9989476203918457 -1 -0 -0 1
-0.601332128047943115 3.35303902626037598 -1 -0 -0 1
0.548429429531097412 3.50836634635925293 -1 -0 -0 1
0.0639944076538085938 0.312662273645401001 -1 -0 -0 1
0.223952591419219971 2.91565489768981934 -1 -0 -0 1
-0.245202541351318359 2.0481712818145752 -1 -0 -0 1
0.234444618225097656 3.35306882858276367 -1 -0 -0 1
-0.0961031392216682434 1.38440096378326416 -1 -0 -0 1
0.315967440605163574 3.44148063659667969 -1 -0 -0 1
0.682507693767547607 3.90132260322570801 -1 -0 -0 1
-0.771109282970428467 3.79298806190490723 -1 -0 -0 1
-0.310447156429290771 2.07574105262756348 -1 -0 -0 1
-0.142044156789779663 0.896873354911804199 -1 -0 -0 1
0.0670918971300125122 1.4004669189453125 -1 -0 -0 1
0.796660721302032471 3.78412556648254395 -1 -0 -0 1
0.115862563252449036 1.94924938678741455 -1 -0 -0 1
-0.47738945484161377 2.70336031913757324 -1 -0 -0 1
-0.110682845115661621 1.3046337366104126 -1 -0 -0 1
0.230993613600730896 3.42380213737487793 -1 -0 -0 1
0.391737252473831177 2.25522947311401367 -1 -0 -0 1
-0.0792741402983665466 1.69957709312438965 -1 -0 -0 1
0.914688169956207275 3.67370367050170898 -1 -0 -0 1
0.864179551601409912 3.6970975399017334 -1 -0 -0 1
0.48602709174156189 3.97437453269958496 -1 -0 -0 1
-0.142291948199272156 3.34128332138061523 -1 -0 -0 1
-0.00873280875384807587 3.20698380470275879 -1 -0 -0 1
0.0352668054401874542 3.08171486854553223 -1 -0 -0 1
-0.521812379360198975 3.6271061897277832 -1 -0 -0 1
0.0453791245818138123 1.71635723114013672 -1 -0 -0 1
-0.275409191846847534 2.7675175666809082 -1 -0 -0 1
-0.435772866010665894 3.60260415077209473 -1 -0 -0 1
-0.0868938341736793518 3.35680532455444336 -1 -0 -0 1
0.519266784191131592 2.6197357177734375 -1 -0 -0 1
-0.374406754970550537 1.58045434951782227 -1 -0 -0 1
-0.23015691339969635 1.03382718563079834 -1 -0 -0 1
0.568176329135894775 3.41648578643798828 -1 -0 -0 1
-0.705833494663238525 3.5001990795135498 -1 -0 -0 1
0.0366890430450439453 3.78022313117980957 -1 -0 -0 1
-0.194790974259376526 2.65238475799560547 -1 -0 -0 1
-0.275669246912002563 3.95999741554260254 -1 -0 -0 1
0.442033141851425171 3.86074256896972656 -1 -0 -0 1
-0.320662051439285278 3.41320490837097168 -1 -0 -0 1
0.586141407489776611 3.53636956214904785 -1 -0 -0 1
0.224563494324684143 3.6779026985168457 -1 -0 -0 1
0.0124978534877300262 0.0987388864159584045 -1 -0 -0 1
-0.572463333606719971 2.40822076797485352 -1 -0 -0 1
-0.0537574551999568939 1.73921084403991699 -1 -0 -0 1
-0.549569904804229736 2.9243321418762207 -1 -0 -0 1
0.261364400386810303 3.25466489791870117 -1 -0 -0 1
-0.164376392960548401 1.93314492702484131 -1 -0 -0 1
0.174824923276901245 1.90858995914459229 -1 -0 -0 1
-0.162893608212471008 2.29853105545043945 -1 -0 -0 1
0.262213796377182007 1.33787393569946289 -1 -0 -0 1
-0.537886500358581543 3.69659590721130371 -1 -0 -0 1
-0.210515350103378296 2.44857192039489746 -1 -0 -0 1
-0.261684805154800415 3.64605140686035156 -1 -0 -0 1
-0.401315897703170776 3.14283514022827148 -1 -0 -0 1
0.439698636531829834 2.33183860778808594 -1 -0 -0 1
-0.190230622887611389 2.25076055526733398 -1 -0 -0 1
-0.140128776431083679 1.88369011878967285 -1 -0 -0 1
-0.0198491998016834259 2.10272836685180664 -1 -0 -0 1
-0.482983708381652832 1.98696053028106689 -1 -0 -0 1
-0.00770364655181765556 1.03853797912597656 -1 -0 -0 1
0.198089092969894409 0.840490579605102539 -1 -0 -0 1
-0.272049188613891602 1.38920331001281738 -1 -0 -0 1
