ply
format ascii 1.0
element vertex 430
property float x
property float y
property float z
property float nx
property float ny
property float nz
end_header
-0.850752592086791992 3.83615899085998535 0.602033615112304688 0.881920576095581055 -0 0.471398055553436279
-0.851005077362060547 3.22310805320739746 0.602506041526794434 0.881920576095581055 -0 0.471398055553436279
-0.861740648746490479 3.45488548278808594 0.622590839862823486 0.881920576095581055 -0 0.471398055553436279
-0.850634157657623291 3.76779937744140625 0.601812005043029785 0.881920576095581055 -0 0.471398055553436279
-0.852030038833618164 3.66919851303100586 0.604423582553863525 0.881920576095581055 -0 0.471398055553436279
-0.861223399639129639 3.27487540245056152 0.62162315845489502 0.881920576095581055 -0 0.471398055553436279
-0.858672142028808594 3.55996155738830566 0.616850018501281738 0.881920576095581055 -0 0.471398055553436279
-0.850501894950866699 1.9181976318359375 0.601564586162567139 0.881920576095581055 -0 0.471398055553436279
-0.855415463447570801 2.83935451507568359 0.610757231712341309 0.881920576095581055 -0 0.471398055553436279
-0.855859637260437012 2.50556039810180664 0.611588180065155029 0.881920576095581055 -0 0.471398055553436279
-0.850991487503051758 1.06280136108398438 0.602480530738830566 0.881920576095581055 -0 0.471398055553436279
-0.850263237953186035 1.1931760311126709 0.601118087768554688 0.881920576095581055 -0 0.471398055553436279
-0.864589035511016846 3.95236015319824219 0.62791973352432251 0.881920576095581055 -0 0.471398055553436279
-0.857245922088623047 2.72761106491088867 0.614181697368621826 0.881920576095581055 -0 0.471398055553436279
-0.853136897087097168 2.05963659286499023 0.606494307518005371 0.881920576095581055 -0 0.471398055553436279
-0.853304684162139893 2.20568442344665527 0.606808245182037354 0.881920576095581055 -0 0.471398055553436279
-0.845522403717041016 1.96729183197021484 0.594950497150421143 0.77300792932510376 0 0.634396374225616455
-0.840459108352661133 1.61200714111328125 0.58878093957901001 0.77300792932510376 0 0.634396374225616455
-0.84589153528213501 0.777311265468597412 0.59540027379989624 0.77300792932510376 0 0.634396374225616455
-0.846942365169525146 3.07791996002197266 0.596680700778961182 0.77300792932510376 0 0.634396374225616455
-0.84659188985824585 0.592534661293029785 0.596253633499145508 0.77300792932510376 0 0.634396374225616455
-0.848859548568725586 2.92528939247131348 0.599016785621643066 0.77300792932510376 0 0.634396374225616455
-0.847318828105926514 0.969773292541503906 0.597139477729797363 0.77300792932510376 0 0.634396374225616455
-0.838101983070373535 1.73166549205780029 0.585908770561218262 0.77300792932510376 0 0.634396374225616455
-0.83778071403503418 1.41614639759063721 0.585517346858978271 0.77300792932510376 0 0.634396374225616455
-0.839896559715270996 1.8152083158493042 0.588095426559448242 0.77300792932510376 0 0.634396374225616455
-0.847494781017303467 0.234397441148757935 0.597353816032409668 0.77300792932510376 0 0.634396374225616455
-0.844967246055603027 2.25342464447021484 0.594274044036865234 0.77300792932510376 0 0.634396374225616455
-0.828749418258666992 0.184041380882263184 0.574512720108032227 0.77300792932510376 0 0.634396374225616455
-0.847384274005889893 2.39135575294494629 0.597219169139862061 0.77300792932510376 0 0.634396374225616455
-0.849335908889770508 0.894756972789764404 0.59959721565246582 0.77300792932510376 0 0.634396374225616455
-0.848134100437164307 2.79636144638061523 0.598132848739624023 0.77300792932510376 0 0.634396374225616455
-0.837157607078552246 1.25716078281402588 0.58475804328918457 0.77300792932510376 0 0.634396374225616455
-0.829216718673706055 0.294573336839675903 0.575082182884216309 0.77300792932510376 0 0.634396374225616455
-0.843641757965087891 0.72118908166885376 0.592658936977386475 0.77300792932510376 0 0.634396374225616455
-0.844460487365722656 0.42171362042427063 0.593656599521636963 0.77300792932510376 0 0.634396374225616455
-0.836762070655822754 3.1279606819152832 0.584275722503662109 0.773019492626190186 1.60701560503184737e-07 0.634382307529449463
-0.83935779333114624 2.6230616569519043 0.587438821792602539 0.773019492626190186 1.60701560503184737e-07 0.634382307529449463
-0.830553174018859863 2.47266411781311035 0.576710104942321777 0.773019492626190186 1.60701560503184737e-07 0.634382307529449463
-0.831560492515563965 1.13784611225128174 0.577937901020050049 0.773019492626190186 1.60701560503184737e-07 0.634382307529449463
-0.831557869911193848 3.3495490550994873 0.577934205532073975 0.773019492626190186 1.60701560503184737e-07 0.634382307529449463
-0.839969336986541748 2.57407116889953613 0.588184058666229248 0.773019492626190186 1.60701560503184737e-07 0.634382307529449463
-0.838703393936157227 2.15432596206665039 0.586641550064086914 0.773019492626190186 1.60701560503184737e-07 0.634382307529449463
-0.829198241233825684 3.60715222358703613 0.575058817863464355 0.773019492626190186 1.60701560503184737e-07 0.634382307529449463
-0.82857060432434082 2.31369137763977051 0.57429426908493042 0.773019492626190186 1.60701560503184737e-07 0.634382307529449463
-0.831994533538818359 1.49199843406677246 0.578466713428497314 0.773019492626190186 1.60701560503184737e-07 0.634382307529449463
-0.829764842987060547 3.53295254707336426 0.575749218463897705 0.773019492626190186 1.60701560503184737e-07 0.634382307529449463
-0.83607560396194458 3.45093488693237305 0.583439171314239502 0.773019492626190186 1.60701560503184737e-07 0.634382307529449463
-0.835274338722229004 1.86954617500305176 0.582463204860687256 0.773019492626190186 1.60701560503184737e-07 0.634382307529449463
-0.842199921607971191 3.01849985122680664 0.590902030467987061 0.773019492626190186 1.60701560503184737e-07 0.634382307529449463
-0.843486309051513672 3.17227554321289062 0.592469453811645508 0.773019492626190186 1.60701560503184737e-07 0.634382307529449463
-0.831953704357147217 2.87978506088256836 0.578416585922241211 0.773019492626190186 1.60701560503184737e-07 0.634382307529449463
-0.824519872665405273 0.523718059062957764 0.570456504821777344 0.634399473667144775 1.95817520420860092e-07 0.773005366325378418
-0.825117051601409912 3.25087428092956543 0.570945918560028076 0.634399473667144775 1.95817520420860092e-07 0.773005366325378418
-0.808244049549102783 0.237483575940132141 0.55709916353225708 0.634399473667144775 1.95817520420860092e-07 0.773005366325378418
-0.818901002407073975 0.82738417387008667 0.565845072269439697 0.634399473667144775 1.95817520420860092e-07 0.773005366325378418
-0.814166724681854248 1.91201949119567871 0.561959385871887207 0.634399473667144775 1.95817520420860092e-07 0.773005366325378418
-0.819898664951324463 0.676718413829803467 0.566663861274719238 0.634399473667144775 1.95817520420860092e-07 0.773005366325378418
-0.811011910438537598 0.970227837562561035 0.559370517730712891 0.634399473667144775 1.95817520420860092e-07 0.773005366325378418
-0.818517506122589111 2.21098828315734863 0.565529942512512207 0.634399473667144775 1.95817520420860092e-07 0.773005366325378418
-0.807119309902191162 0.338823199272155762 0.55617600679397583 0.634399473667144775 1.95817520420860092e-07 0.773005366325378418
-0.820249676704406738 2.53049302101135254 0.566951453685760498 0.634399473667144775 1.95817520420860092e-07 0.773005366325378418
-0.819601356983184814 2.41657829284667969 0.566419422626495361 0.634399473667144775 1.95817520420860092e-07 0.773005366325378418
-0.811210274696350098 1.08392047882080078 0.559533298015594482 0.634399473667144775 1.95817520420860092e-07 0.773005366325378418
-0.810181379318237305 0.442100048065185547 0.55868905782699585 0.634399473667144775 1.95817520420860092e-07 0.773005366325378418
-0.811918973922729492 0.0535650290548801422 0.560115158557891846 0.634399473667144775 1.95817520420860092e-07 0.773005366325378418
-0.812642574310302734 1.28928828239440918 0.560708701610565186 0.634399473667144775 1.95817520420860092e-07 0.773005366325378418
-0.82567209005355835 2.71738886833190918 0.571401536464691162 0.634399473667144775 1.95817520420860092e-07 0.773005366325378418
-0.800920069217681885 1.79176032543182373 0.551088392734527588 0.634382307529449463 -0 0.773019492626190186
-0.811165094375610352 2.05745387077331543 0.559496045112609863 0.634382307529449463 -0 0.773019492626190186
-0.800335288047790527 3.02793502807617188 0.550608515739440918 0.634382307529449463 -0 0.773019492626190186
-0.810762405395507812 2.10914826393127441 0.559165596961975098 0.634382307529449463 -0 0.773019492626190186
-0.802732467651367188 1.96757614612579346 0.552575767040252686 0.634382307529449463 -0 0.773019492626190186
-0.809367060661315918 2.35451865196228027 0.558020472526550293 0.634382307529449463 -0 0.773019492626190186
-0.806996822357177734 3.80318617820739746 0.556075334548950195 0.634382307529449463 -0 0.773019492626190186
-0.801488399505615234 3.3133695125579834 0.551554858684539795 0.634382307529449463 -0 0.773019492626190186
-0.820992708206176758 3.89095044136047363 0.567561149597167969 0.634382307529449463 -0 0.773019492626190186
-0.800929009914398193 1.16477632522583008 0.551095724105834961 0.634382307529449463 -0 0.773019492626190186
-0.814990341663360596 3.41083860397338867 0.562635302543640137 0.634382307529449463 -0 0.773019492626190186
-0.803136348724365234 2.94019794464111328 0.552907228469848633 0.634382307529449463 -0 0.773019492626190186
-0.80269157886505127 3.10026454925537109 0.552542209625244141 0.634382307529449463 -0 0.773019492626190186
-0.816441655158996582 2.66935300827026367 0.563826262950897217 0.634382307529449463 -0 0.773019492626190186
-0.807265579700469971 1.84283649921417236 0.556295931339263916 0.634382307529449463 -0 0.773019492626190186
-0.810719132423400879 3.19513273239135742 0.559130072593688965 0.634382307529449463 -0 0.773019492626190186
-0.802655875682830811 0.716518521308898926 0.552512884140014648 0.634382307529449463 -0 0.773019492626190186
-0.813985288143157959 2.79152321815490723 0.561810493469238281 0.634382307529449463 -0 0.773019492626190186
-0.805784344673156738 3.95297670364379883 0.555080294609069824 0.634382307529449463 -0 0.773019492626190186
-0.806311070919036865 1.63590669631958008 0.555512547492980957 0.634382307529449463 -0 0.773019492626190186
-0.796523630619049072 2.49500203132629395 0.548475801944732666 0.471386343240737915 0 0.881926834583282471
-0.787437617778778076 2.25067996978759766 0.543619394302368164 0.471386343240737915 0 0.881926834583282471
-0.781248748302459717 1.38441717624664307 0.540311455726623535 0.471386343240737915 0 0.881926834583282471
-0.793678462505340576 0.907212197780609131 0.546955108642578125 0.471386343240737915 0 0.881926834583282471
-0.798111855983734131 1.56245660781860352 0.549324691295623779 0.471386343240737915 0 0.881926834583282471
-0.790970921516418457 2.60559582710266113 0.545507907867431641 0.471386343240737915 0 0.881926834583282471
-0.788377940654754639 0.17948383092880249 0.544121980667114258 0.471386343240737915 0 0.881926834583282471
-0.784338116645812988 0.111333735287189484 0.541962742805480957 0.471386343240737915 0 0.881926834583282471
-0.792335391044616699 1.33250176906585693 0.54623723030090332 0.471386343240737915 0 0.881926834583282471
-0.795620501041412354 0.55995631217956543 0.547993123531341553 0.471386343240737915 0 0.881926834583282471
-0.798652887344360352 2.16436004638671875 0.549613893032073975 0.471386343240737915 0 0.881926834583282471
-0.787198126316070557 0.391191303730010986 0.543491363525390625 0.471386343240737915 0 0.881926834583282471
-0.783983230590820312 0.656221270561218262 0.541773021221160889 0.471386343240737915 0 0.881926834583282471
-0.782519996166229248 0.282861053943634033 0.540990948677062988 0.471386343240737915 0 0.881926834583282471
-0.771138787269592285 1.8702157735824585 0.534907341003417969 0.471408665180206299 2.23406445343243831e-07 0.881914913654327393
-0.795072734355926514 3.46443915367126465 0.547700285911560059 0.471408665180206299 2.23406445343243831e-07 0.881914913654327393
-0.784281134605407715 2.74274468421936035 0.541932046413421631 0.471408665180206299 2.23406445343243831e-07 0.881914913654327393
-0.769301474094390869 0.780834376811981201 0.533925533294677734 0.471408665180206299 2.23406445343243831e-07 0.881914913654327393
-0.788677692413330078 3.36901068687438965 0.544282019138336182 0.471408665180206299 2.23406445343243831e-07 0.881914913654327393
-0.769289970397949219 2.67221546173095703 0.533918917179107666 0.471408665180206299 2.23406445343243831e-07 0.881914913654327393
-0.772343456745147705 3.16928339004516602 0.535550951957702637 0.471408665180206299 2.23406445343243831e-07 0.881914913654327393
-0.796563029289245605 3.64119267463684082 0.548496842384338379 0.471408665180206299 2.23406445343243831e-07 0.881914913654327393
-0.784083187580108643 2.98210406303405762 0.541826188564300537 0.471408665180206299 2.23406445343243831e-07 0.881914913654327393
-0.775116384029388428 3.53550529479980469 0.5370330810546875 0.471408665180206299 2.23406445343243831e-07 0.881914913654327393
-0.771937072277069092 1.93744933605194092 0.53533405065536499 0.471408665180206299 2.23406445343243831e-07 0.881914913654327393
-0.777178943157196045 2.42761015892028809 0.538135826587677002 0.471408665180206299 2.23406445343243831e-07 0.881914913654327393
-0.772727549076080322 1.43434786796569824 0.535756707191467285 0.471408665180206299 2.23406445343243831e-07 0.881914913654327393
-0.783242404460906982 2.8583521842956543 0.541376829147338867 0.471408665180206299 2.23406445343243831e-07 0.881914913654327393
-0.78408968448638916 3.86079931259155273 0.541829466819763184 0.471408665180206299 2.23406445343243831e-07 0.881914913654327393
-0.792070448398590088 3.71717429161071777 0.546095430850982666 0.471408665180206299 2.23406445343243831e-07 0.881914913654327393
-0.773389816284179688 1.73856961727142334 0.536110579967498779 0.471408665180206299 2.23406445343243831e-07 0.881914913654327393
-0.761579036712646484 4 0.846114158630371094 -0 -1 -0
-0.802103579044342041 4 0.767655432224273682 -0 -1 -0
-0.690362036228179932 4 0.768552064895629883 -0 -1 -0
-0.840592384338378906 4 0.653760731220245361 -0 -1 -0
-0.669293344020843506 4 0.544472873210906982 0 -1 0
-0.77891695499420166 4 0.577367544174194336 0 -1 0
-0.578877806663513184 4 0.694201648235321045 -0 -1 0
-0.674733936786651611 4 0.59587937593460083 -0 -1 0
-0.619736075401306152 4 0.597261250019073486 -0 -1 0
-0.582078218460083008 4 0.628067851066589355 -0 -1 0
-0.564248025417327881 4 0.806968271732330322 -0 -1 -0
-0.830864071846008301 4 0.808662176132202148 -0 -1 -0
-0.743322551250457764 0.56642383337020874 0.525948286056518555 0.290281981229782104 2.42412085071919137e-07 0.956941127777099609
-0.763437867164611816 1.26798760890960693 0.532049953937530518 0.290281981229782104 2.42412085071919137e-07 0.956941127777099609
-0.753990232944488525 1.8159555196762085 0.529183924198150635 0.290281981229782104 2.42412085071919137e-07 0.956941127777099609
-0.760760128498077393 1.59060728549957275 0.531237602233886719 0.290281981229782104 2.42412085071919137e-07 0.956941127777099609
-0.764309525489807129 2.19731855392456055 0.532314121723175049 0.290281981229782104 2.42412085071919137e-07 0.956941127777099609
-0.767233729362487793 1.05206680297851562 0.533201456069946289 0.290281981229782104 2.42412085071919137e-07 0.956941127777099609
-0.761694610118865967 3.09734153747558594 0.531520664691925049 0.290281981229782104 2.42412085071919137e-07 0.956941127777099609
-0.76175004243850708 1.51614642143249512 0.531537890434265137 0.290281981229782104 2.42412085071919137e-07 0.956941127777099609
-0.763161063194274902 0.48574557900428772 0.531966149806976318 0.290281981229782104 2.42412085071919137e-07 0.956941127777099609
-0.764118313789367676 0.352120667695999146 0.532256603240966797 0.290281981229782104 2.42412085071919137e-07 0.956941127777099609
-0.747978270053863525 0.144015654921531677 0.527360677719116211 0.290281981229782104 2.42412085071919137e-07 0.956941127777099609
-0.760205388069152832 2.3695521354675293 0.531069099903106689 0.290281981229782104 2.42412085071919137e-07 0.956941127777099609
-0.762236237525939941 0.956898987293243408 0.531685531139373779 0.290281981229782104 2.42412085071919137e-07 0.956941127777099609
-0.76363837718963623 0.229732602834701538 0.532111048698425293 0.290281981229782104 2.42412085071919137e-07 0.956941127777099609
-0.766494512557983398 2.32066583633422852 0.532976925373077393 0.290281981229782104 2.42412085071919137e-07 0.956941127777099609
-0.766760706901550293 1.66566991806030273 0.533057808876037598 0.290281981229782104 2.42412085071919137e-07 0.956941127777099609
-0.745620191097259521 0.626869678497314453 0.526645243167877197 0.290281981229782104 2.42412085071919137e-07 0.956941127777099609
-0.768289148807525635 2.00346088409423828 0.533521354198455811 0.290281981229782104 2.42412085071919137e-07 0.956941127777099609
-0.747786879539489746 0.863904833793640137 0.527302443981170654 0.290281981229782104 2.42412085071919137e-07 0.956941127777099609
-0.753701210021972656 3.9731137752532959 0.529095709323883057 0.290281981229782104 2.42412085071919137e-07 0.956941127777099609
-0.758487164974212646 3.23268270492553711 0.530547678470611572 0.290281981229782104 2.42412085071919137e-07 0.956941127777099609
-0.748055636882781982 3.46213960647583008 0.527383267879486084 0.290281981229782104 2.42412085071919137e-07 0.956941127777099609
-0.741139888763427734 2.91397857666015625 0.525285601615905762 0.290281981229782104 2.42412085071919137e-07 0.956941127777099609
-0.737549722194671631 3.8913116455078125 0.524196267127990723 0.290281981229782104 2.42412085071919137e-07 0.956941127777099609
-0.758439481258392334 3.81459283828735352 0.530533075332641602 0.290281981229782104 2.42412085071919137e-07 0.956941127777099609
-0.735738754272460938 2.5227973461151123 0.523647308349609375 0.290281981229782104 2.42412085071919137e-07 0.956941127777099609
-0.742814242839813232 3.6609196662902832 0.525793313980102539 0.290281981229782104 2.42412085071919137e-07 0.956941127777099609
-0.742740869522094727 2.83651566505432129 0.525771260261535645 0.290281981229782104 2.42412085071919137e-07 0.956941127777099609
-0.73621678352355957 2.23763942718505859 0.523792386054992676 0.290281981229782104 2.42412085071919137e-07 0.956941127777099609
-0.737782895565032959 1.90570032596588135 0.52426755428314209 0.290281981229782104 2.42412085071919137e-07 0.956941127777099609
-0.755163490772247314 3.04932522773742676 0.529539525508880615 0.290281981229782104 2.42412085071919137e-07 0.956941127777099609
-0.741890192031860352 2.99518823623657227 0.525513172149658203 0.290281981229782104 2.42412085071919137e-07 0.956941127777099609
-0.763423144817352295 3.58310103416442871 0.532044887542724609 0.290281981229782104 2.42412085071919137e-07 0.956941127777099609
-0.748387634754180908 2.5922694206237793 0.527484238147735596 0.290281981229782104 2.42412085071919137e-07 0.956941127777099609
-0.754119634628295898 3.2957005500793457 0.529222786426544189 0.290281981229782104 2.42412085071919137e-07 0.956941127777099609
-0.735695123672485352 2.09855151176452637 0.523634135723114014 0.290281981229782104 2.42412085071919137e-07 0.956941127777099609
-0.722813010215759277 0.305629253387451172 0.522247076034545898 0.0980286672711372375 2.52099653152981773e-07 0.995183587074279785
-0.724474310874938965 2.46851277351379395 0.522410154342651367 0.0980286672711372375 2.52099653152981773e-07 0.995183587074279785
-0.721314489841461182 2.16499972343444824 0.522098958492279053 0.0980286672711372375 2.52099653152981773e-07 0.995183587074279785
-0.719262897968292236 1.47759008407592773 0.521897077560424805 0.0980286672711372375 2.52099653152981773e-07 0.995183587074279785
-0.717399537563323975 1.1747591495513916 0.521713614463806152 0.0980286672711372375 2.52099653152981773e-07 0.995183587074279785
-0.720300018787384033 0.696342945098876953 0.52199941873550415 0.0980286672711372375 2.52099653152981773e-07 0.995183587074279785
-0.731855213642120361 0.39532586932182312 0.523137748241424561 0.0980286672711372375 2.52099653152981773e-07 0.995183587074279785
-0.717182695865631104 0.748443543910980225 0.521692335605621338 0.0980286672711372375 2.52099653152981773e-07 0.995183587074279785
-0.724546730518341064 1.30363714694976807 0.522417604923248291 0.0980286672711372375 2.52099653152981773e-07 0.995183587074279785
-0.724488198757171631 1.73168742656707764 0.522411704063415527 0.0980286672711372375 2.52099653152981773e-07 0.995183587074279785
-0.721157073974609375 0.0728968828916549683 0.52208399772644043 0.0980286672711372375 2.52099653152981773e-07 0.995183587074279785
-0.7310677170753479 2.77928590774536133 0.523059546947479248 0.0980286672711372375 2.52099653152981773e-07 0.995183587074279785
-0.720756232738494873 0.221504330635070801 0.522044479846954346 0.0980286672711372375 2.52099653152981773e-07 0.995183587074279785
-0.717207789421081543 0.947373807430267334 0.521694779396057129 0.0980286672711372375 2.52099653152981773e-07 0.995183587074279785
-0.721614539623260498 0.00379408989101648331 0.522129058837890625 0.0980286672711372375 2.52099653152981773e-07 0.995183587074279785
-0.72436600923538208 2.03696203231811523 0.522399604320526123 0.0980286672711372375 2.52099653152981773e-07 0.995183587074279785
-0.718494296073913574 3.40696573257446289 0.521821200847625732 0.0980002209544181824 -0 0.995186388492584229
-0.716124475002288818 2.69792461395263672 0.521587848663330078 0.0980002209544181824 -0 0.995186388492584229
-0.713270664215087891 3.07513332366943359 0.521306812763214111 0.0980002209544181824 -0 0.995186388492584229
-0.707046926021575928 3.77312040328979492 0.52069389820098877 0.0980002209544181824 -0 0.995186388492584229
-0.709471225738525391 3.12568569183349609 0.520932674407958984 0.0980002209544181824 -0 0.995186388492584229
-0.723158419132232666 3.50513863563537598 0.522280514240264893 0.0980002209544181824 -0 0.995186388492584229
-0.708166837692260742 2.88026785850524902 0.520804226398468018 0.0980002209544181824 -0 0.995186388492584229
-0.70208209753036499 3.57491755485534668 0.520205020904541016 0.0980002209544181824 -0 0.995186388492584229
-0.720416128635406494 3.71241188049316406 0.522010445594787598 0.0980002209544181824 -0 0.995186388492584229
-0.720013320446014404 2.33310627937316895 0.521970748901367188 0.0980002209544181824 -0 0.995186388492584229
-0.70747840404510498 0.89219433069229126 0.520736396312713623 0.0980002209544181824 -0 0.995186388492584229
-0.72338336706161499 3.34240603446960449 0.522302627563476562 0.0980002209544181824 -0 0.995186388492584229
-0.702848732471466064 1.3727487325668335 0.52028048038482666 0.0980002209544181824 -0 0.995186388492584229
-0.702898561954498291 1.08527994155883789 0.520285427570343018 0.0980002209544181824 -0 0.995186388492584229
-0.709248065948486328 1.67541885375976562 0.520910680294036865 0.0980002209544181824 -0 0.995186388492584229
-0.710241496562957764 1.57515919208526611 0.521008491516113281 0.0980002209544181824 -0 0.995186388492584229
-0.722846448421478271 3.17155957221984863 0.522249758243560791 0.0980002209544181824 -0 0.995186388492584229
-0.700349867343902588 0.171191737055778503 0.520034432411193848 0.0980002209544181824 -0 0.995186388492584229
-0.578666508197784424 0 0.723943769931793213 -0 1 -0
-0.698065578937530518 0 0.702325105667114258 -0 1 -0
-0.641040682792663574 0 0.69504237174987793 -0 1 -0
-0.660959720611572266 0 0.82737046480178833 -0 1 -0
-0.532070815563201904 0 0.723258316516876221 -0 1 -0
-0.575753331184387207 0 0.780795514583587646 -0 1 -0
-0.69750368595123291 0 0.65520709753036499 -0 1 -0
-0.742558777332305908 0 0.674650371074676514 -0 1 -0
-0.601866185665130615 0 0.614170193672180176 -0 1 -0
-0.873997867107391357 0 0.738041222095489502 -0 1 -0
0.202472880482673645 0.477091997861862183 0.520243585109710693 -0.0980287045240402222 -0 0.995183587074279785
0.200328737497329712 0.039274163544178009 0.520032346248626709 -0.0980287045240402222 -0 0.995183587074279785
0.20678141713142395 1.22059452533721924 0.520667970180511475 -0.0980287045240402222 -0 0.995183587074279785
0.211706027388572693 0.963270664215087891 0.521153032779693604 -0.0980287045240402222 -0 0.995183587074279785
0.200636312365531921 0.419318586587905884 0.520062685012817383 -0.0980287045240402222 -0 0.995183587074279785
0.202718302607536316 0.834658801555633545 0.520267724990844727 -0.0980287045240402222 -0 0.995183587074279785
0.206042557954788208 0.559729874134063721 0.520595192909240723 -0.0980287045240402222 -0 0.995183587074279785
0.213986024260520935 0.261056572198867798 0.521377623081207275 -0.0980287045240402222 -0 0.995183587074279785
0.234956592321395874 1.65851795673370361 0.523443341255187988 -0.0980287045240402222 -0 0.995183587074279785
0.234235078096389771 0.78039473295211792 0.523372232913970947 -0.0980287045240402222 -0 0.995183587074279785
0.22575002908706665 1.5195382833480835 0.52253645658493042 -0.0980287045240402222 -0 0.995183587074279785
0.227845758199691772 1.30944716930389404 0.522742867469787598 -0.0980287045240402222 -0 0.995183587074279785
0.207038670778274536 1.6060035228729248 0.520693302154541016 -0.0980287045240402222 -0 0.995183587074279785
0.232526317238807678 1.15964925289154053 0.523203909397125244 -0.0980287045240402222 -0 0.995183587074279785
0.214339300990104675 1.89317607879638672 0.521412432193756104 -0.0980287045240402222 -0 0.995183587074279785
0.233959510922431946 1.94586336612701416 0.523345112800598145 -0.0980287045240402222 -0 0.995183587074279785
0.215218991041183472 1.3565678596496582 0.521499097347259521 -0.0980287045240402222 -0 0.995183587074279785
0.208181500434875488 1.84089457988739014 0.520805895328521729 -0.0980287045240402222 -0 0.995183587074279785
0.245390415191650391 0.706894099712371826 0.526575684547424316 -0.290281981229782104 -0 0.956941127777099609
0.237864792346954346 1.72506356239318848 0.524292826652526855 -0.290281981229782104 -0 0.956941127777099609
0.250422775745391846 0.465008020401000977 0.528102219104766846 -0.290281981229782104 -0 0.956941127777099609
0.248197883367538452 0.135582849383354187 0.527427315711975098 -0.290281981229782104 -0 0.956941127777099609
0.23641049861907959 0.0788903683423995972 0.523851692676544189 -0.290281981229782104 -0 0.956941127777099609
0.235692083835601807 0.370153814554214478 0.523633778095245361 -0.290281981229782104 -0 0.956941127777099609
0.241663351655006409 1.01340842247009277 0.525445103645324707 -0.290281981229782104 -0 0.956941127777099609
0.245190754532814026 0.892635583877563477 0.52651512622833252 -0.290281981229782104 -0 0.956941127777099609
0.247251138091087341 1.10727798938751221 0.527140140533447266 -0.290281981229782104 -0 0.956941127777099609
0.252314835786819458 0.208875954151153564 0.528676152229309082 -0.290281981229782104 -0 0.956941127777099609
0.236730322241783142 0.629958391189575195 0.523948729038238525 -0.290281981229782104 -0 0.956941127777099609
0.258743315935134888 0.260374724864959717 0.530626237392425537 -0.290281981229782104 -0 0.956941127777099609
0.256728887557983398 1.2645193338394165 0.530015170574188232 -0.290281981229782104 -0 0.956941127777099609
0.247453659772872925 1.80535519123077393 0.527201592922210693 -0.290281981229782104 -0 0.956941127777099609
0.25213921070098877 1.46237385272979736 0.528622925281524658 -0.290281981229782104 -0 0.956941127777099609
0.249875366687774658 1.99740028381347656 0.527936160564422607 -0.290281981229782104 -0 0.956941127777099609
0.267657577991485596 1.54094278812408447 0.533330321311950684 -0.290281981229782104 -0 0.956941127777099609
0.254748523235321045 1.58500993251800537 0.52941441535949707 -0.290281981229782104 -0 0.956941127777099609
0.281348586082458496 0.590984821319580078 0.540364623069763184 -0.471374392509460449 -0 0.881933212280273438
0.284234851598739624 0.673795223236083984 0.541907250881195068 -0.471374392509460449 -0 0.881933212280273438
0.28000834584236145 0.505693674087524414 0.539648294448852539 -0.471374392509460449 -0 0.881933212280273438
0.269647866487503052 0.322752296924591064 0.534110844135284424 -0.471374392509460449 -0 0.881933212280273438
0.278994321823120117 0.0652383714914321899 0.539106309413909912 -0.471374392509460449 -0 0.881933212280273438
0.298461318016052246 1.94880819320678711 0.54951101541519165 -0.471374392509460449 -0 0.881933212280273438
0.294059336185455322 1.70138263702392578 0.547158241271972656 -0.471374392509460449 -0 0.881933212280273438
0.284647256135940552 1.86613953113555908 0.542127668857574463 -0.471374392509460449 -0 0.881933212280273438
0.296623706817626953 0.752741396427154541 0.548528850078582764 -0.471374392509460449 -0 0.881933212280273438
0.294571489095687866 1.21512877941131592 0.54743194580078125 -0.471374392509460449 -0 0.881933212280273438
0.299785584211349487 0.187813267111778259 0.550218820571899414 -0.471374392509460449 -0 0.881933212280273438
0.294022172689437866 0.429667055606842041 0.547138392925262451 -0.471374392509460449 -0 0.881933212280273438
0.297900736331939697 1.45012080669403076 0.549211382865905762 -0.471374392509460449 -0 0.881933212280273438
0.297314345836639404 1.64456021785736084 0.548897981643676758 -0.471374392509460449 -0 0.881933212280273438
0.28555828332901001 1.02562069892883301 0.542614579200744629 -0.471374392509460449 -0 0.881933212280273438
0.272973626852035522 1.91198861598968506 0.535888373851776123 -0.471374392509460449 -0 0.881933212280273438
0.295117706060409546 1.79167962074279785 0.547723889350891113 -0.471374392509460449 -0 0.881933212280273438
0.290472328662872314 0.9618682861328125 0.545241057872772217 -0.471374392509460449 -0 0.881933212280273438
0.297915041446685791 0.805507004261016846 0.549219012260437012 -0.471374392509460449 -0 0.881933212280273438
0.292962193489074707 1.29719078540802002 0.546571850776672363 -0.471374392509460449 -0 0.881933212280273438
0.287161678075790405 1.35518038272857666 0.543471574783325195 -0.471374392509460449 -0 0.881933212280273438
0.311590790748596191 1.0849682092666626 0.559845328330993652 -0.63441312313079834 -0 0.772994160652160645
0.322914689779281616 0.0391205251216888428 0.56913912296295166 -0.63441312313079834 -0 0.772994160652160645
0.300644159317016602 0.382553309202194214 0.550861179828643799 -0.63441312313079834 -0 0.772994160652160645
0.304592341184616089 0.245397090911865234 0.55410158634185791 -0.63441312313079834 -0 0.772994160652160645
0.302607148885726929 0.89618682861328125 0.552472293376922607 -0.63441312313079834 -0 0.772994160652160645
0.303797304630279541 1.15852141380310059 0.553449094295501709 -0.63441312313079834 -0 0.772994160652160645
0.326184958219528198 1.86752378940582275 0.5718231201171875 -0.63441312313079834 -0 0.772994160652160645
0.323384344577789307 0.512315034866333008 0.569524586200714111 -0.63441312313079834 -0 0.772994160652160645
0.308300375938415527 1.56356310844421387 0.557144820690155029 -0.63441312313079834 -0 0.772994160652160645
0.322453200817108154 0.936418116092681885 0.568760335445404053 -0.63441312313079834 -0 0.772994160652160645
0.332415938377380371 0.845363974571228027 0.578980028629302979 -0.77299422025680542 -0 0.634413063526153564
0.334405839443206787 0.335466295480728149 0.581404626369476318 -0.77299422025680542 -0 0.634413063526153564
0.330418109893798828 0.588129043579101562 0.576545834541320801 -0.77299422025680542 -0 0.634413063526153564
0.327634751796722412 0.110330544412136078 0.573154449462890625 -0.77299422025680542 -0 0.634413063526153564
0.332413822412490845 1.19942271709442139 0.578977465629577637 -0.77299422025680542 -0 0.634413063526153564
0.327329486608505249 0.665136158466339111 0.572782516479492188 -0.77299422025680542 -0 0.634413063526153564
0.334170311689376831 0.468198657035827637 0.581117689609527588 -0.77299422025680542 -0 0.634413063526153564
0.340083926916122437 0.387149125337600708 0.588322997093200684 -0.77299422025680542 -0 0.634413063526153564
0.33594939112663269 0.273032218217849731 0.583285331726074219 -0.77299422025680542 -0 0.634413063526153564
0.328273892402648926 1.25733399391174316 0.573933184146881104 -0.77299422025680542 -0 0.634413063526153564
0.327988266944885254 0.718348681926727295 0.573585212230682373 -0.77299422025680542 -0 0.634413063526153564
0.329476654529571533 1.50488162040710449 0.575398683547973633 -0.77299422025680542 -0 0.634413063526153564
0.329974710941314697 1.91512763500213623 0.57600557804107666 -0.77299422025680542 -0 0.634413063526153564
0.348604530096054077 1.34705793857574463 0.598704874515533447 -0.77299422025680542 -0 0.634413063526153564
0.3338356614112854 1.60918676853179932 0.580709934234619141 -0.77299422025680542 -0 0.634413063526153564
0.33050459623336792 1.99382162094116211 0.576651215553283691 -0.77299422025680542 -0 0.634413063526153564
0.339331507682800293 0.993071615695953369 0.587406277656555176 -0.77299422025680542 -0 0.634413063526153564
0.338117152452468872 1.7470318078994751 0.585926651954650879 -0.77299422025680542 -0 0.634413063526153564
0.348545759916305542 1.82938873767852783 0.598633289337158203 -0.77299422025680542 -0 0.634413063526153564
0.342472851276397705 1.39914202690124512 0.591233789920806885 -0.77299422025680542 -0 0.634413063526153564
0.353577166795730591 0.523624658584594727 0.607316553592681885 -0.881932854652404785 -0 0.471375048160552979
0.350433707237243652 1.6858060359954834 0.601435244083404541 -0.881932854652404785 -0 0.471375048160552979
0.356998294591903687 0.816933512687683105 0.613717436790466309 -0.881932854652404785 -0 0.471375048160552979
0.359997868537902832 0.429056435823440552 0.619329631328582764 -0.881932854652404785 -0 0.471375048160552979
0.352292060852050781 0.898823738098144531 0.604912161827087402 -0.881932854652404785 -0 0.471375048160552979
0.355949550867080688 0.737627744674682617 0.611755311489105225 -0.881932854652404785 -0 0.471375048160552979
0.363414466381072998 0.277821183204650879 0.625721991062164307 -0.881932854652404785 -0 0.471375048160552979
0.360613018274307251 0.180243432521820068 0.620480537414550781 -0.881932854652404785 -0 0.471375048160552979
0.36262163519859314 0.072093278169631958 0.62423861026763916 -0.881932854652404785 -0 0.471375048160552979
0.360213756561279297 0.64645075798034668 0.619733512401580811 -0.881932854652404785 -0 0.471375048160552979
0.363067746162414551 1.54786455631256104 0.625073254108428955 -0.881932854652404785 -0 0.471375048160552979
0.359279811382293701 1.29306602478027344 0.617986142635345459 -0.881932854652404785 -0 0.471375048160552979
0.358913391828536987 1.17110776901245117 0.617300570011138916 -0.881932854652404785 -0 0.471375048160552979
0.355751216411590576 1.89057981967926025 0.611384153366088867 -0.881932854652404785 -0 0.471375048160552979
0.35958901047706604 1.47232747077941895 0.6185646653175354 -0.881932854652404785 -0 0.471375048160552979
0.360342890024185181 1.95902693271636963 0.619975090026855469 -0.881932854652404785 -0 0.471375048160552979
0.361647337675094604 1.05040097236633301 0.622415721416473389 -0.881932854652404785 -0 0.471375048160552979
0.362696409225463867 0.953956246376037598 0.624378502368927002 -0.881932854652404785 -0 0.471375048160552979
0.371029049158096313 0.228475674986839294 0.646713376045227051 -0.956941127777099609 -0 0.290281981229782104
0.366875171661376953 1.76040887832641602 0.633019685745239258 -0.956941127777099609 -0 0.290281981229782104
0.368805944919586182 1.33801949024200439 0.639384746551513672 -0.956941127777099609 -0 0.290281981229782104
0.367596656084060669 0.565675020217895508 0.635398209095001221 -0.956941127777099609 -0 0.290281981229782104
0.367600828409194946 1.40577638149261475 0.635411918163299561 -0.956941127777099609 -0 0.290281981229782104
0.366326481103897095 1.11025214195251465 0.631210923194885254 -0.956941127777099609 -0 0.290281981229782104
0.368277370929718018 0.37176850438117981 0.637642264366149902 -0.956941127777099609 -0 0.290281981229782104
0.376137763261795044 1.28043019771575928 0.663554668426513672 -0.956941127777099609 -0 0.290281981229782104
0.369175970554351807 1.85606527328491211 0.640604496002197266 -0.956941127777099609 -0 0.290281981229782104
0.369694024324417114 1.62351012229919434 0.642312288284301758 -0.956941127777099609 -0 0.290281981229782104
0.376286447048187256 1.1677478551864624 0.66404491662979126 -0.956941127777099609 -0 0.290281981229782104
0.375635981559753418 0.752319097518920898 0.661900520324707031 -0.956941127777099609 -0 0.290281981229782104
0.375412911176681519 1.68962109088897705 0.661165118217468262 -0.956941127777099609 -0 0.290281981229782104
0.377316713333129883 0.701350927352905273 0.672759294509887695 -0.995183646678924561 -0 0.0980278253555297852
0.377707928419113159 0.420922607183456421 0.676730632781982422 -0.995183646678924561 -0 0.0980278253555297852
0.376738786697387695 0.656761288642883301 0.666891932487487793 -0.995183646678924561 -0 0.0980278253555297852
0.378257155418395996 0.951397418975830078 0.682306468486785889 -0.995183646678924561 -0 0.0980278253555297852
0.376999408006668091 0.894367337226867676 0.669537723064422607 -0.995183646678924561 -0 0.0980278253555297852
0.377748161554336548 0.054674193263053894 0.6771392822265625 -0.995183646678924561 -0 0.0980278253555297852
0.377294868230819702 1.02223718166351318 0.672537505626678467 -0.995183646678924561 -0 0.0980278253555297852
0.378911703824996948 0.551328837871551514 0.688951492309570312 -0.995183646678924561 -0 0.0980278253555297852
0.377669185400009155 0.837171018123626709 0.676337599754333496 -0.995183646678924561 -0 0.0980278253555297852
0.379234611988067627 0.0978827700018882751 0.692229688167572021 -0.995183646678924561 -0 0.0980278253555297852
0.378088474273681641 0.351526647806167603 0.680594205856323242 -0.995183646678924561 -0 0.0980278253555297852
0.3778495192527771 0.178321719169616699 0.678168356418609619 -0.995183646678924561 -0 0.0980278253555297852
0.377753317356109619 1.5600743293762207 0.677191555500030518 -0.995183646678924561 -0 0.0980278253555297852
0.378173768520355225 1.23235857486724854 0.681460142135620117 -0.995183646678924561 -0 0.0980278253555297852
0.377658933401107788 1.81970655918121338 0.676233351230621338 -0.995183646678924561 -0 0.0980278253555297852
0.378901392221450806 1.72784960269927979 0.688846945762634277 -0.995183646678924561 -0 0.0980278253555297852
0.376705855131149292 1.97062921524047852 0.666557550430297852 -0.995183646678924561 -0 0.0980278253555297852
0.378908306360244751 1.12346148490905762 0.688916981220245361 -0.995183646678924561 -0 0.0980278253555297852
0.37954297661781311 1.33808302879333496 0.695360362529754639 -0.995183646678924561 -0 0.0980278253555297852
0.377416014671325684 1.89835786819458008 0.673767209053039551 -0.995183646678924561 -0 0.0980278253555297852
0.378592997789382935 1.07383990287780762 0.685715973377227783 -0.995183646678924561 -0 0.0980278253555297852
0.37868189811706543 1.46382820606231689 0.686618566513061523 -0.995183646678924561 -0 0.0980278253555297852
0.379648178815841675 0.307517290115356445 0.703571736812591553 -0.995183646678924561 -0 -0.0980278253555297852
0.377527564764022827 0.523834586143493652 0.725100100040435791 -0.995183646678924561 -0 -0.0980278253555297852
0.378155797719955444 0.789961755275726318 0.718722283840179443 -0.995183646678924561 -0 -0.0980278253555297852
0.379414886236190796 1.61498832702636719 0.705940067768096924 -0.995183646678924561 -0 -0.0980278253555297852
0.377191275358200073 0.0326384231448173523 0.728514134883880615 -0.995183646678924561 -0 -0.0980278253555297852
0.37900206446647644 0.46202889084815979 0.710130929946899414 -0.995183646678924561 -0 -0.0980278253555297852
0.378641813993453979 0.610983133316040039 0.713788449764251709 -0.995183646678924561 -0 -0.0980278253555297852
0.376994818449020386 0.207811176776885986 0.730508625507354736 -0.995183646678924561 -0 -0.0980278253555297852
0.37676587700843811 0.375436455011367798 0.73283308744430542 -0.995183646678924561 -0 -0.0980278253555297852
0.377577900886535645 1.0024491548538208 0.724589169025421143 -0.995183646678924561 -0 -0.0980278253555297852
0.378150641918182373 1.85987186431884766 0.718774676322937012 -0.995183646678924561 -0 -0.0980278253555297852
0.37836870551109314 1.17974090576171875 0.716560840606689453 -0.995183646678924561 -0 -0.0980278253555297852
0.376825124025344849 1.05026912689208984 0.732231378555297852 -0.995183646678924561 -0 -0.0980278253555297852
0.379400581121444702 1.66696512699127197 0.706085383892059326 -0.995183646678924561 -0 -0.0980278253555297852
0.378259927034378052 1.39886033535003662 0.717665135860443115 -0.995183646678924561 -0 -0.0980278253555297852
0.376686692237854004 1.78979432582855225 0.733636677265167236 -0.995183646678924561 -0 -0.0980278253555297852
0.37813374400138855 1.93944895267486572 0.718946158885955811 -0.995183646678924561 -0 -0.0980278253555297852
0.378375887870788574 1.27346146106719971 0.716487884521484375 -0.995183646678924561 -0 -0.0980278253555297852
0.372233837842941284 0.32749292254447937 0.749314963817596436 -0.956941127777099609 -0 -0.290281981229782104
0.373371392488479614 0.662091076374053955 0.745564818382263184 -0.956941127777099609 -0 -0.290281981229782104
0.371561199426651001 0.569007575511932373 0.751532316207885742 -0.956941127777099609 -0 -0.290281981229782104
0.375565916299819946 1.49294078350067139 0.738330364227294922 -0.956941127777099609 -0 -0.290281981229782104
0.373896569013595581 1.224281907081604 0.743833601474761963 -0.956941127777099609 -0 -0.290281981229782104
0.375188529491424561 0.275203675031661987 0.73957449197769165 -0.956941127777099609 -0 -0.290281981229782104
0.372756242752075195 0.0867156460881233215 0.747592806816101074 -0.956941127777099609 -0 -0.290281981229782104
0.371839612722396851 0.142546817660331726 0.750614523887634277 -0.956941127777099609 -0 -0.290281981229782104
0.372971177101135254 1.1121666431427002 0.74688422679901123 -0.956941127777099609 -0 -0.290281981229782104
0.375944018363952637 0.844581723213195801 0.737083911895751953 -0.956941127777099609 -0 -0.290281981229782104
0.369514435529708862 0.70639193058013916 0.758279621601104736 -0.956941127777099609 -0 -0.290281981229782104
0.372127771377563477 1.44483554363250732 0.749664604663848877 -0.956941127777099609 -0 -0.290281981229782104
0.372989624738693237 1.89894711971282959 0.746823430061340332 -0.956941127777099609 -0 -0.290281981229782104
0.372197121381759644 1.3082270622253418 0.749435901641845703 -0.956941127777099609 -0 -0.290281981229782104
0.370380878448486328 0.891112208366394043 0.755423426628112793 -0.956941127777099609 -0 -0.290281981229782104
0.371452301740646362 1.71337997913360596 0.751891374588012695 -0.956941127777099609 -0 -0.290281981229782104
0.372758716344833374 1.58021295070648193 0.74758458137512207 -0.956941127777099609 -0 -0.290281981229782104
0.367520272731781006 0.806232094764709473 0.76485365629196167 -0.956941127777099609 -0 -0.290281981229782104
0.36348879337310791 0.245133191347122192 0.774138927459716797 -0.881932854652404785 -0 -0.471375048160552979
0.366289377212524414 0.945725977420806885 0.768899142742156982 -0.881932854652404785 -0 -0.471375048160552979
0.355608671903610229 0.121570587158203125 0.78888249397277832 -0.881932854652404785 -0 -0.471375048160552979
0.355916202068328857 0.75131988525390625 0.788307070732116699 -0.881932854652404785 -0 -0.471375048160552979
0.365006089210510254 0.505217254161834717 0.771300077438354492 -0.881932854652404785 -0 -0.471375048160552979
0.362642258405685425 0.189187705516815186 0.775722801685333252 -0.881932854652404785 -0 -0.471375048160552979
0.354566425085067749 0.288711249828338623 0.79083251953125 -0.881932854652404785 -0 -0.471375048160552979
0.364847242832183838 1.02715098857879639 0.77159726619720459 -0.881932854652404785 -0 -0.471375048160552979
0.355765044689178467 0.633596956729888916 0.788589894771575928 -0.881932854652404785 -0 -0.471375048160552979
0.362963289022445679 0.410063594579696655 0.775122165679931641 -0.881932854652404785 -0 -0.471375048160552979
0.359309643507003784 0.458191096782684326 0.781958043575286865 -0.881932854652404785 -0 -0.471375048160552979
0.353447318077087402 1.06961536407470703 0.792926013469696045 -0.881926476955413818 -2.38823247400432592e-07 -0.471386998891830444
0.35651668906211853 1.19442391395568848 0.787183403968811035 -0.881926476955413818 -2.38823247400432592e-07 -0.471386998891830444
0.35605931282043457 1.28752601146697998 0.788039088249206543 -0.881926476955413818 -2.38823247400432592e-07 -0.471386998891830444
0.360832512378692627 1.53316259384155273 0.779108703136444092 -0.881926476955413818 -2.38823247400432592e-07 -0.471386998891830444
0.351592659950256348 1.48465454578399658 0.796395719051361084 -0.881926476955413818 -2.38823247400432592e-07 -0.471386998891830444
0.360071033239364624 1.99858880043029785 0.780533134937286377 -0.881926476955413818 -2.38823247400432592e-07 -0.471386998891830444
0.354962527751922607 1.1238100528717041 0.790091156959533691 -0.881926476955413818 -2.38823247400432592e-07 -0.471386998891830444
0.361901253461837769 1.95372569561004639 0.777108907699584961 -0.881926476955413818 -2.38823247400432592e-07 -0.471386998891830444
0.359906494617462158 1.77731227874755859 0.78084111213684082 -0.881926476955413818 -2.38823247400432592e-07 -0.471386998891830444
0.3585357666015625 1.36391234397888184 0.783405780792236328 -0.881926476955413818 -2.38823247400432592e-07 -0.471386998891830444
0.352187842130661011 1.58678925037384033 0.795282125473022461 -0.881926476955413818 -2.38823247400432592e-07 -0.471386998891830444
0.349746406078338623 1.67441952228546143 0.799849808216094971 -0.881926476955413818 -2.38823247400432592e-07 -0.471386998891830444
0.349570989608764648 0.584838330745697021 0.800117194652557373 -0.77299422025680542 -3.21418696103137336e-07 -0.634413063526153564
0.338682323694229126 0.493264645338058472 0.813384473323822021 -0.77299422025680542 -3.21418696103137336e-07 -0.634413063526153564
0.336916863918304443 0.687463223934173584 0.815535426139831543 -0.77299422025680542 -3.21418696103137336e-07 -0.634413063526153564
0.347823441028594971 0.915785074234008789 0.802246332168579102 -0.77299422025680542 -3.21418696103137336e-07 -0.634413063526153564
0.344373613595962524 0.0423313714563846588 0.806450188159942627 -0.77299422025680542 -3.21418696103137336e-07 -0.634413063526153564
0.338523596525192261 0.2212868332862854 0.813578009605407715 -0.77299422025680542 -3.21418696103137336e-07 -0.634413063526153564
0.330280184745788574 1.5530240535736084 0.823622047901153564 -0.773005783557891846 -0 -0.634398937225341797
0.330324441194534302 1.2097163200378418 0.823568105697631836 -0.773005783557891846 -0 -0.634398937225341797
0.328799724578857422 0.36469113826751709 0.825425982475280762 -0.773005783557891846 -0 -0.634398937225341797
0.334536373615264893 1.34170770645141602 0.818435966968536377 -0.773005783557891846 -0 -0.634398937225341797
0.341586917638778687 1.39805364608764648 0.809844970703125 -0.773005783557891846 -0 -0.634398937225341797
0.328017145395278931 1.72668254375457764 0.826379537582397461 -0.773005783557891846 -0 -0.634398937225341797
0.333072423934936523 1.90704214572906494 0.820219755172729492 -0.773005783557891846 -0 -0.634398937225341797
0.327392935752868652 0.0891604050993919373 0.827140152454376221 -0.773005783557891846 -0 -0.634398937225341797
0.335944861173629761 0.86318671703338623 0.816719770431518555 -0.773005783557891846 -0 -0.634398937225341797
0.342834234237670898 1.85845506191253662 0.80832517147064209 -0.773005783557891846 -0 -0.634398937225341797
0.327819287776947021 1.8031005859375 0.826620638370513916 -0.773005783557891846 -0 -0.634398937225341797
0.309523284435272217 0.413797974586486816 0.841851472854614258 -0.63441312313079834 -0 -0.772994160652160645
0.322422921657562256 1.03810060024261475 0.8312644362449646 -0.63441312313079834 -0 -0.772994160652160645
0.324189841747283936 0.983412683010101318 0.829814314842224121 -0.63441312313079834 -0 -0.772994160652160645
