ply
format ascii 1.0
element vertex 911
property float x
property float y
property float z
property float nx
property float ny
property float nz
end_header
0.886490404605865479 3.24146866798400879 -1 -0 -0 1
0.553127765655517578 0.989080905914306641 -1 -0 -0 1
0.663366794586181641 1.72176730632781982 -1 -0 -0 1
0.558367908000946045 0.890989959239959717 -1 -0 -0 1
0.512979507446289062 0.853890717029571533 -1 -0 -0 1
0.709155082702636719 1.98868322372436523 -1 -0 -0 1
0.429133713245391846 0.355753719806671143 -1 -0 -0 1
0.631512761116027832 1.53161394596099854 -1 -0 -0 1
0.546977221965789795 0.689088582992553711 -1 -0 -0 1
0.389790385961532593 0.069943942129611969 -1 -0 -0 1
0.745290696620941162 2.22498464584350586 -1 -0 -0 1
0.63950580358505249 1.34641122817993164 -1 -0 -0 1
0.51965939998626709 0.949725568294525146 -1 -0 -0 1
0.481490731239318848 0.425872057676315308 -1 -0 -0 1
0.713184833526611328 2.1183779239654541 -1 -0 -0 1
0.415968149900436401 0.275079488754272461 -1 -0 -0 1
0.770523667335510254 2.47328972816467285 -1 -0 -0 1
0.685832679271697998 1.54551863670349121 -1 -0 -0 1
0.540374755859375 0.38871997594833374 -1 -0 -0 1
0.533328890800476074 0.743233144283294678 -1 -0 -0 1
0.775826215744018555 2.36377406120300293 -1 -0 -0 1
0.696361660957336426 1.85443520545959473 -1 -0 -0 1
0.483613491058349609 0.696000099182128906 -1 -0 -0 1
0.480121761560440063 0.303639501333236694 -1 -0 -0 1
0.935266315937042236 3.58855199813842773 -1 -0 -0 1
0.545732021331787109 1.09721064567565918 -1 -0 -0 1
0.596314370632171631 1.21998941898345947 -1 -0 -0 1
0.814342916011810303 2.6047828197479248 -1 -0 -0 1
0.898502767086029053 3.30982613563537598 -1 -0 -0 1
0.823555529117584229 2.66017580032348633 -1 -0 -0 1
0.483490258455276489 0.481855332851409912 -1 -0 -0 1
0.611896157264709473 1.10340583324432373 -1 -0 -0 1
0.58713233470916748 0.749686896800994873 -1 -0 -0 1
0.947915196418762207 3.65269565582275391 -1 -0 -0 1
0.489362239837646484 0.640489697456359863 -1 -0 -0 1
0.593206584453582764 0.841956734657287598 -1 -0 -0 1
0.762477219104766846 2.309844970703125 -1 -0 -0 1
0.709343492984771729 1.80362856388092041 -1 -0 -0 1
0.475245237350463867 0.581730067729949951 -1 -0 -0 1
0.469609826803207397 0.193947106599807739 -1 -0 -0 1
0.453460514545440674 0.112346164882183075 -1 -0 -0 1
0.503318905830383301 0.0719527602195739746 -1 -0 -0 1
0.822638630867004395 2.7773292064666748 -1 -0 -0 1
0.850991487503051758 2.84043097496032715 -1 -0 -0 1
0.6379852294921875 1.45235490798950195 -1 -0 -0 1
0.808878839015960693 2.55429840087890625 -1 -0 -0 1
0.645951628684997559 1.64390313625335693 -1 -0 -0 1
0.60158848762512207 1.15744578838348389 -1 -0 -0 1
0.621108114719390869 1.40054404735565186 -1 -0 -0 1
0.523525238037109375 0.54065096378326416 -1 -0 -0 1
0.724162697792053223 2.17829537391662598 -1 -0 -0 1
0.742982983589172363 2.04449200630187988 -1 -0 -0 1
0.619706630706787109 1.28141748905181885 -1 -0 -0 1
0.560144662857055664 1.04967033863067627 -1 -0 -0 1
0.501580774784088135 0.146654561161994934 -1 -0 -0 1
0.864157974720001221 3.02968788146972656 -1 -0 -0 1
0.701618373394012451 1.750832200050354 -1 -0 -0 1
0.518198788166046143 0.341813564300537109 -1 -0 -0 1
0.397802799940109253 0.136012285947799683 -1 -0 -0 1
0.661028861999511719 1.81296062469482422 -1 -0 -0 1
0.647573649883270264 1.20872330665588379 -1 -0 -0 1
0.52891087532043457 0.482553958892822266 -1 -0 -0 1
0.520761609077453613 0.599582374095916748 -1 -0 -0 1
0.451111316680908203 0.240564823150634766 -1 -0 -0 1
0.545498788356781006 0.798941314220428467 -1 -0 -0 1
0.573946714401245117 1.76284170150756836 -1 -0 -0 1
0.600151896476745605 1.59485101699829102 -1 -0 -0 1
0.560252070426940918 1.33879482746124268 -1 -0 -0 1
0.79007565975189209 2.69391274452209473 -1 -0 -0 1
0.508286476135253906 1.16364908218383789 -1 -0 -0 1
0.626832127571105957 1.9389040470123291 -1 -0 -0 1
0.62173086404800415 1.88431215286254883 -1 -0 -0 1
0.297360986471176147 0.0585611797869205475 -1 -0 -0 1
0.385135918855667114 0.772850096225738525 -1 -0 -0 1
0.330283641815185547 0.451894044876098633 -1 -0 -0 1
0.758024156093597412 2.65884661674499512 -1 -0 -0 1
0.480475783348083496 0.912157833576202393 -1 -0 -0 1
0.574798047542572021 1.48283898830413818 -1 -0 -0 1
0.29994046688079834 0.194199800491333008 -1 -0 -0 1
0.432791411876678467 0.913433492183685303 -1 -0 -0 1
0.727594316005706787 2.54092812538146973 -1 -0 -0 1
0.571555614471435547 1.40304231643676758 -1 -0 -0 1
0.540789008140563965 1.21356439590454102 -1 -0 -0 1
0.813048005104064941 2.87396359443664551 -1 -0 -0 1
0.683162450790405273 2.04693841934204102 -1 -0 -0 1
0.623040199279785156 1.77776622772216797 -1 -0 -0 1
0.338377594947814941 0.356211006641387939 -1 -0 -0 1
0.444907575845718384 0.998239994049072266 -1 -0 -0 1
0.439714610576629639 0.859148502349853516 -1 -0 -0 1
0.48595389723777771 1.08817267417907715 -1 -0 -0 1
0.565659582614898682 1.27485048770904541 -1 -0 -0 1
0.498444110155105591 1.03471696376800537 -1 -0 -0 1
0.538946568965911865 1.51910662651062012 -1 -0 -0 1
0.365545421838760376 0.27444159984588623 -1 -0 -0 1
0.817059993743896484 2.96307945251464844 -1 -0 -0 1
0.435055375099182129 0.782825708389282227 -1 -0 -0 1
0.767173945903778076 2.59383869171142578 -1 -0 -0 1
0.589804947376251221 1.68461215496063232 -1 -0 -0 1
0.666703343391418457 1.90836429595947266 -1 -0 -0 1
0.792851090431213379 2.83148384094238281 -1 -0 -0 1
0.492562592029571533 1.2379833459854126 -1 -0 -0 1
0.526178181171417236 1.46695220470428467 -1 -0 -0 1
0.447578698396682739 1.05868411064147949 -1 -0 -0 1
0.407595634460449219 0.409293651580810547 -1 -0 -0 1
0.381630837917327881 0.58834463357925415 -1 -0 -0 1
0.720376014709472656 2.34803152084350586 -1 -0 -0 1
0.307139277458190918 0.265640199184417725 -1 -0 -0 1
0.426236152648925781 0.540544390678405762 -1 -0 -0 1
0.505351483821868896 1.3736109733581543 -1 -0 -0 1
0.670379519462585449 2.15015387535095215 -1 -0 -0 1
0.403704345226287842 0.48021167516708374 -1 -0 -0 1
0.845221996307373047 3.18377280235290527 -1 -0 -0 1
0.310451507568359375 0.118816189467906952 -1 -0 -0 1
0.411960184574127197 0.633568525314331055 -1 -0 -0 1
0.474557578563690186 0.750564992427825928 -1 -0 -0 1
0.714235424995422363 2.29281139373779297 -1 -0 -0 1
0.848008215427398682 3.09377241134643555 -1 -0 -0 1
0.546690106391906738 1.5935436487197876 -1 -0 -0 1
0.336995869874954224 0.517008781433105469 -1 -0 -0 1
0.63708341121673584 2.02921915054321289 -1 -0 -0 1
0.578445255756378174 1.55019640922546387 -1 -0 -0 1
0.432207167148590088 0.727734386920928955 -1 -0 -0 1
0.713668465614318848 2.48619198799133301 -1 -0 -0 1
0.696226119995117188 2.23533439636230469 -1 -0 -0 1
0.396187275648117065 0.231991410255432129 -1 -0 -0 1
0.35906556248664856 0.165900066494941711 -1 -0 -0 1
0.366418153047561646 0.647392988204956055 -1 -0 -0 1
0.195451065897941589 0.189566284418106079 -1 -0 -0 1
0.491160064935684204 1.42255103588104248 -1 -0 -0 1
0.52489084005355835 1.8617396354675293 -1 -0 -0 1
0.393602252006530762 0.870132148265838623 -1 -0 -0 1
0.611641049385070801 2.20566105842590332 -1 -0 -0 1
0.254066944122314453 0.27592197060585022 -1 -0 -0 1
0.410289406776428223 0.96197962760925293 -1 -0 -0 1
0.294751733541488647 0.783700108528137207 -1 -0 -0 1
0.421321958303451538 1.2370295524597168 -1 -0 -0 1
0.774379134178161621 2.93916177749633789 -1 -0 -0 1
0.780280351638793945 3.00298786163330078 -1 -0 -0 1
0.50957721471786499 1.74333310127258301 -1 -0 -0 1
0.442078977823257446 1.16159427165985107 -1 -0 -0 1
0.421411424875259399 1.39969527721405029 -1 -0 -0 1
0.429720193147659302 1.30084896087646484 -1 -0 -0 1
0.379733473062515259 1.20996487140655518 -1 -0 -0 1
0.887516319751739502 3.43907785415649414 -1 -0 -0 1
0.490042448043823242 1.49464130401611328 -1 -0 -0 1
0.437352120876312256 1.45588839054107666 -1 -0 -0 1
0.347985804080963135 0.934813439846038818 -1 -0 -0 1
0.240394726395606995 0.582193911075592041 -1 -0 -0 1
0.307374447584152222 0.401593565940856934 -1 -0 -0 1
0.459203451871871948 1.35982394218444824 -1 -0 -0 1
0.335961133241653442 0.761800825595855713 -1 -0 -0 1
0.538611710071563721 1.67295944690704346 -1 -0 -0 1
0.582443416118621826 1.8146827220916748 -1 -0 -0 1
0.588511168956756592 2.07149505615234375 -1 -0 -0 1
0.81588822603225708 3.04189729690551758 -1 -0 -0 1
0.187750622630119324 0.303847789764404297 -1 -0 -0 1
0.651625633239746094 2.32604193687438965 -1 -0 -0 1
0.255230933427810669 0.499191343784332275 -1 -0 -0 1
0.329415708780288696 0.827985167503356934 -1 -0 -0 1
0.691498041152954102 2.4466552734375 -1 -0 -0 1
0.744128108024597168 2.82081460952758789 -1 -0 -0 1
0.756226181983947754 2.76367330551147461 -1 -0 -0 1
0.277662605047225952 0.638067424297332764 -1 -0 -0 1
0.358299821615219116 0.98849177360534668 -1 -0 -0 1
0.235478147864341736 0.441873759031295776 -1 -0 -0 1
0.407804608345031738 1.34517478942871094 -1 -0 -0 1
0.480808347463607788 1.29079031944274902 -1 -0 -0 1
0.244434639811515808 0.210226431488990784 -1 -0 -0 1
0.223979741334915161 0.142393156886100769 -1 -0 -0 1
0.591242313385009766 1.97453510761260986 -1 -0 -0 1
0.278581291437149048 0.544065654277801514 -1 -0 -0 1
0.232524171471595764 0.33052411675453186 -1 -0 -0 1
0.148066103458404541 0.17850455641746521 -1 -0 -0 1
0.365444183349609375 0.699790537357330322 -1 -0 -0 1
0.760686397552490234 2.88626956939697266 -1 -0 -0 1
0.147566497325897217 0.120626389980316162 -1 -0 -0 1
0.398655921220779419 1.08828878402709961 -1 -0 -0 1
0.324943214654922485 0.622639894485473633 -1 -0 -0 1
0.203730106353759766 0.374996781349182129 -1 -0 -0 1
0.210449963808059692 0.246775969862937927 -1 -0 -0 1
0.334542900323867798 0.570572257041931152 -1 -0 -0 1
0.660355448722839355 2.40479326248168945 -1 -0 -0 1
0.305951446294784546 0.675832748413085938 -1 -0 -0 1
0.498985201120376587 1.56579923629760742 -1 -0 -0 1
0.293632805347442627 0.348179936408996582 -1 -0 -0 1
0.34055793285369873 1.04677164554595947 -1 -0 -0 1
0.629858314990997314 2.09023785591125488 -1 -0 -0 1
0.208105921745300293 0.792551815509796143 -1 -0 -0 1
0.496104240417480469 2.01706957817077637 -1 -0 -0 1
0.619941949844360352 2.49470925331115723 -1 -0 -0 1
0.171413436532020569 0.429197967052459717 -1 -0 -0 1
0.45234990119934082 1.76999783515930176 -1 -0 -0 1
0.451712161302566528 1.67289340496063232 -1 -0 -0 1
0.463897228240966797 1.62352192401885986 -1 -0 -0 1
0.552460551261901855 2.20436978340148926 -1 -0 -0 1
0.518684983253479004 1.92307424545288086 -1 -0 -0 1
0.253521353006362915 0.849283337593078613 -1 -0 -0 1
0.125083267688751221 0.333914130926132202 -1 -0 -0 1
0.352454155683517456 1.16217553615570068 -1 -0 -0 1
0.164251938462257385 0.522283196449279785 -1 -0 -0 1
0.406707704067230225 1.58286929130554199 -1 -0 -0 1
0.299771875143051147 1.18695294857025146 -1 -0 -0 1
0.123076319694519043 0.404404044151306152 -1 -0 -0 1
0.581215262413024902 2.15939784049987793 -1 -0 -0 1
0.356681555509567261 1.28054535388946533 -1 -0 -0 1
0.222502276301383972 0.536461114883422852 -1 -0 -0 1
0.661147177219390869 2.54633998870849609 -1 -0 -0 1
0.525260686874389648 1.97180616855621338 -1 -0 -0 1
0.546493113040924072 2.03102016448974609 -1 -0 -0 1
0.129437550902366638 0.559660494327545166 -1 -0 -0 1
0.465998828411102295 1.7163769006729126 -1 -0 -0 1
0.680663704872131348 2.59667849540710449 -1 -0 -0 1
0.670982003211975098 2.66507911682128906 -1 -0 -0 1
0.0736163482069969177 0.334585577249526978 -1 -0 -0 1
0.693113327026367188 2.74538469314575195 -1 -0 -0 1
0.160704895853996277 0.601636290550231934 -1 -0 -0 1
0.446012288331985474 1.5506666898727417 -1 -0 -0 1
0.0584613904356956482 0.202424436807632446 -1 -0 -0 1
0.383447974920272827 1.45680224895477295 -1 -0 -0 1
0.0694659426808357239 0.250516355037689209 -1 -0 -0 1
0.0693876147270202637 0.155040323734283447 -1 -0 -0 1
0.586225509643554688 2.2526702880859375 -1 -0 -0 1
0.298242270946502686 1.0128781795501709 -1 -0 -0 1
0.282406032085418701 0.918571770191192627 -1 -0 -0 1
0.886115789413452148 3.55005383491516113 -1 -0 -0 1
0.537043273448944092 2.14037537574768066 -1 -0 -0 1
0.339722514152526855 1.10661017894744873 -1 -0 -0 1
0.309444338083267212 1.31354272365570068 -1 -0 -0 1
0.79619067907333374 3.09577345848083496 -1 -0 -0 1
0.805053651332855225 3.23768329620361328 -1 -0 -0 1
0.395187646150588989 1.63077819347381592 -1 -0 -0 1
0.389349490404129028 1.51828408241271973 -1 -0 -0 1
0.245916232466697693 0.957716643810272217 -1 -0 -0 1
0.591458261013031006 2.39840292930603027 -1 -0 -0 1
0.298126876354217529 0.867566585540771484 -1 -0 -0 1
0.124623127281665802 0.228118583559989929 -1 -0 -0 1
0.327086269855499268 1.37211012840270996 -1 -0 -0 1
0.243789240717887878 0.75984269380569458 -1 -0 -0 1
0.856108605861663818 3.36521792411804199 -1 -0 -0 1
0.225551322102546692 0.651335597038269043 -1 -0 -0 1
0.191754624247550964 0.706421315670013428 -1 -0 -0 1
0.290821194648742676 1.10269296169281006 -1 -0 -0 1
0.252337336540222168 1.03854453563690186 -1 -0 -0 1
0.845109641551971436 3.31100368499755859 -1 -0 -0 1
0.136408939957618713 0.28327476978302002 -1 -0 -0 1
0.141985490918159485 0.466314971446990967 -1 -0 -0 1
0.483294576406478882 1.80756068229675293 -1 -0 -0 1
0.0695491358637809753 0.453299462795257568 -1 -0 -0 1
-0.0017770593985915184 0.203158050775527954 -1 -0 -0 1
-0.0258341394364833832 0.443203657865524292 -1 -0 -0 1
0.00484664971008896828 0.584370076656341553 -1 -0 -0 1
0.10144023597240448 0.717745363712310791 -1 -0 -0 1
0.784123241901397705 3.17717194557189941 -1 -0 -0 1
0.082872346043586731 0.553948342800140381 -1 -0 -0 1
0.0231013353914022446 0.354943454265594482 -1 -0 -0 1
0.27953001856803894 1.5153958797454834 -1 -0 -0 1
-0.00240202783606946468 0.403135597705841064 -1 -0 -0 1
0.942416727542877197 3.79315781593322754 -1 -0 -0 1
0.329833358526229858 1.47213995456695557 -1 -0 -0 1
0.641435742378234863 2.72090864181518555 -1 -0 -0 1
-0.0443342477083206177 0.29248344898223877 -1 -0 -0 1
0.917942583560943604 3.6982724666595459 -1 -0 -0 1
0.390395432710647583 1.80063629150390625 -1 -0 -0 1
0.168277129530906677 1.07609593868255615 -1 -0 -0 1
0.324346870183944702 1.42305779457092285 -1 -0 -0 1
0.746286928653717041 3.0875704288482666 -1 -0 -0 1
0.112969174981117249 0.832652091979980469 -1 -0 -0 1
0.397888541221618652 1.90669715404510498 -1 -0 -0 1
-0.0400911197066307068 0.241568878293037415 -1 -0 -0 1
0.147980928421020508 0.92628246545791626 -1 -0 -0 1
-0.0614671558141708374 0.163108795881271362 -1 -0 -0 1
0.193538188934326172 0.892575740814208984 -1 -0 -0 1
0.0392424426972866058 0.292768359184265137 -1 -0 -0 1
0.234761029481887817 1.29938614368438721 -1 -0 -0 1
0.453772932291030884 2.12522268295288086 -1 -0 -0 1
0.251810938119888306 1.21021413803100586 -1 -0 -0 1
0.0436559543013572693 0.52298659086227417 -1 -0 -0 1
0.0228573419153690338 0.472275763750076294 -1 -0 -0 1
0.574729323387145996 2.46724700927734375 -1 -0 -0 1
0.101924516260623932 0.621216297149658203 -1 -0 -0 1
0.067580200731754303 0.395190417766571045 -1 -0 -0 1
0.531569302082061768 2.25175714492797852 -1 -0 -0 1
-0.0883611664175987244 0.253827154636383057 -1 -0 -0 1
0.352015137672424316 1.74225950241088867 -1 -0 -0 1
0.190765008330345154 1.19137430191040039 -1 -0 -0 1
0.620060741901397705 2.63985371589660645 -1 -0 -0 1
0.0774688571691513062 0.665630459785461426 -1 -0 -0 1
0.124718219041824341 0.884612500667572021 -1 -0 -0 1
0.479312121868133545 2.08554744720458984 -1 -0 -0 1
0.569568514823913574 2.34515905380249023 -1 -0 -0 1
0.159014791250228882 1.02883946895599365 -1 -0 -0 1
0.184337988495826721 0.963907957077026367 -1 -0 -0 1
0.460490047931671143 1.97997927665710449 -1 -0 -0 1
0.436902493238449097 1.8673255443572998 -1 -0 -0 1
-0.0193361639976501465 0.336123913526535034 -1 -0 -0 1
0.344729304313659668 1.58663904666900635 -1 -0 -0 1
0.437060356140136719 2.02482080459594727 -1 -0 -0 1
0.123983234167098999 0.969132900238037109 -1 -0 -0 1
-0.00584556441754102707 0.139581009745597839 -1 -0 -0 1
0.0990532189607620239 0.784098029136657715 -1 -0 -0 1
0.706431031227111816 2.89618468284606934 -1 -0 -0 1
0.657913327217102051 2.7820899486541748 -1 -0 -0 1
0.0459364131093025208 0.715952634811401367 -1 -0 -0 1
0.689395904541015625 2.83339905738830566 -1 -0 -0 1
0.327848047018051147 1.54220366477966309 -1 -0 -0 1
0.16740088164806366 0.827183187007904053 -1 -0 -0 1
0.265616685152053833 1.41291189193725586 -1 -0 -0 1
0.540571033954620361 2.29694604873657227 -1 -0 -0 1
0.492377638816833496 2.16805720329284668 -1 -0 -0 1
0.250006824731826782 1.13754010200500488 -1 -0 -0 1
0.149306431412696838 0.783746242523193359 -1 -0 -0 1
0.326190441846847534 1.63605713844299316 -1 -0 -0 1
0.2200726717710495 1.00039589405059814 -1 -0 -0 1
0.40917012095451355 1.75144052505493164 -1 -0 -0 1
0.0557752251625061035 0.60727083683013916 -1 -0 -0 1
0.130281746387481689 0.665689349174499512 -1 -0 -0 1
0.485786408185958862 2.23198533058166504 -1 -0 -0 1
0.462562650442123413 1.9135582447052002 -1 -0 -0 1
0.547955155372619629 2.53059625625610352 -1 -0 -0 1
0.22246195375919342 1.3784027099609375 -1 -0 -0 1
-0.224362671375274658 0.219891786575317383 -1 -0 -0 1
-0.027039259672164917 0.656644582748413086 -1 -0 -0 1
0.451795190572738647 2.26921606063842773 -1 -0 -0 1
-0.140858754515647888 0.41828542947769165 -1 -0 -0 1
0.269964218139648438 1.56666743755340576 -1 -0 -0 1
0.265512138605117798 1.69824886322021484 -1 -0 -0 1
0.0155531410127878189 0.799304962158203125 -1 -0 -0 1
0.354302853345870972 1.96940982341766357 -1 -0 -0 1
-0.107291065156459808 0.508007466793060303 -1 -0 -0 1
0.408742070198059082 1.98291456699371338 -1 -0 -0 1
0.592487215995788574 2.70206403732299805 -1 -0 -0 1
0.390044420957565308 2.05507993698120117 -1 -0 -0 1
0.0776154994964599609 0.984663665294647217 -1 -0 -0 1
0.569666683673858643 2.5933380126953125 -1 -0 -0 1
-0.031760096549987793 0.712461352348327637 -1 -0 -0 1
0.489618897438049316 2.36519527435302734 -1 -0 -0 1
0.250609129667282104 1.46925473213195801 -1 -0 -0 1
0.344568163156509399 1.92243242263793945 -1 -0 -0 1
0.6896858811378479 2.94579124450683594 -1 -0 -0 1
0.111304953694343567 1.10634183883666992 -1 -0 -0 1
0.217449545860290527 1.57290828227996826 -1 -0 -0 1
0.844238936901092529 3.49572062492370605 -1 -0 -0 1
0.00435894634574651718 0.754227519035339355 -1 -0 -0 1
-0.20264396071434021 0.269054174423217773 -1 -0 -0 1
0.774035930633544922 3.29471325874328613 -1 -0 -0 1
-0.0759980902075767517 0.431027084589004517 -1 -0 -0 1
-0.046154119074344635 0.502780735492706299 -1 -0 -0 1
0.0288124345242977142 0.890055716037750244 -1 -0 -0 1
0.0245174337178468704 0.65626990795135498 -1 -0 -0 1
0.641703665256500244 2.89812469482421875 -1 -0 -0 1
0.295813500881195068 1.74266743659973145 -1 -0 -0 1
-0.136804476380348206 0.265505373477935791 -1 -0 -0 1
0.213095560669898987 1.50056588649749756 -1 -0 -0 1
0.0772043466567993164 0.936341047286987305 -1 -0 -0 1
0.0311752930283546448 0.94778972864151001 -1 -0 -0 1
0.175518080592155457 1.44810163974761963 -1 -0 -0 1
-0.116832301020622253 0.196116343140602112 -1 -0 -0 1
-0.191723406314849854 0.160798355937004089 -1 -0 -0 1
0.446773737668991089 2.20223450660705566 -1 -0 -0 1
-0.0492375940084457397 0.588674247264862061 -1 -0 -0 1
0.0819747373461723328 1.06081807613372803 -1 -0 -0 1
0.728491067886352539 3.14846324920654297 -1 -0 -0 1
0.800562858581542969 3.34153604507446289 -1 -0 -0 1
0.497699379920959473 2.44587874412536621 -1 -0 -0 1
-0.0798944085836410522 0.380946189165115356 -1 -0 -0 1
0.124816522002220154 1.27353978157043457 -1 -0 -0 1
0.177811861038208008 1.25481319427490234 -1 -0 -0 1
-0.136871680617332458 0.325960516929626465 -1 -0 -0 1
0.190482273697853088 1.34407126903533936 -1 -0 -0 1
0.126907855272293091 1.16523504257202148 -1 -0 -0 1
0.318631172180175781 1.69235992431640625 -1 -0 -0 1
0.161166772246360779 1.12793314456939697 -1 -0 -0 1
0.266202747821807861 1.64657914638519287 -1 -0 -0 1
0.330247461795806885 1.8007204532623291 -1 -0 -0 1
-0.0426082015037536621 0.775114536285400391 -1 -0 -0 1
0.164505824446678162 1.39747095108032227 -1 -0 -0 1
-0.0884452611207962036 0.634866833686828613 -1 -0 -0 1
-0.169759824872016907 0.229115322232246399 -1 -0 -0 1
0.334374815225601196 1.85670292377471924 -1 -0 -0 1
-0.904233992099761963 3.28013515472412109 -1 -0 -0 1
-0.851839542388916016 3.00440883636474609 -1 -0 -0 1
-0.708660781383514404 1.92876386642456055 -1 -0 -0 1
-0.795714676380157471 2.49168562889099121 -1 -0 -0 1
-0.67789912223815918 1.76869797706604004 -1 -0 -0 1
-0.907719552516937256 3.34025120735168457 -1 -0 -0 1
-0.750907182693481445 2.33450675010681152 -1 -0 -0 1
-0.516553699970245361 0.915336370468139648 -1 -0 -0 1
-0.615525424480438232 1.21954143047332764 -1 -0 -0 1
-0.72066187858581543 2.02725434303283691 -1 -0 -0 1
-0.855446219444274902 3.09097838401794434 -1 -0 -0 1
-0.553982079029083252 1.19424676895141602 -1 -0 -0 1
-0.48877522349357605 0.437548577785491943 -1 -0 -0 1
-0.716430842876434326 1.97506833076477051 -1 -0 -0 1
-0.469275355339050293 0.702095270156860352 -1 -0 -0 1
-0.638823986053466797 1.59612488746643066 -1 -0 -0 1
-0.570318400859832764 1.13337969779968262 -1 -0 -0 1
-0.572890698909759521 0.926893651485443115 -1 -0 -0 1
-0.746839225292205811 2.39815616607666016 -1 -0 -0 1
-0.916172325611114502 3.39802050590515137 -1 -0 -0 1
-0.959223270416259766 3.75037455558776855 -1 -0 -0 1
-0.536277115345001221 1.01775240898132324 -1 -0 -0 1
-0.536231338977813721 0.840501189231872559 -1 -0 -0 1
-0.593919098377227783 1.27198231220245361 -1 -0 -0 1
-0.566733181476593018 0.981133520603179932 -1 -0 -0 1
-0.641880452632904053 1.37073135375976562 -1 -0 -0 1
-0.941823303699493408 3.61980819702148438 -1 -0 -0 1
-0.424148827791213989 0.226802870631217957 -1 -0 -0 1
-0.628034114837646484 1.69263684749603271 -1 -0 -0 1
-0.643770575523376465 1.41981685161590576 -1 -0 -0 1
-0.592292726039886475 1.36141908168792725 -1 -0 -0 1
-0.512964129447937012 0.750859498977661133 -1 -0 -0 1
-0.747029662132263184 2.13709378242492676 -1 -0 -0 1
-0.52795177698135376 0.477971851825714111 -1 -0 -0 1
-0.517306923866271973 0.678707003593444824 -1 -0 -0 1
-0.452391982078552246 0.556802153587341309 -1 -0 -0 1
-0.497596144676208496 0.260933756828308105 -1 -0 -0 1
-0.463385224342346191 0.383244186639785767 -1 -0 -0 1
-0.69287562370300293 2.06773257255554199 -1 -0 -0 1
-0.486276507377624512 0.500142157077789307 -1 -0 -0 1
-0.600454628467559814 1.45165348052978516 -1 -0 -0 1
-0.952469348907470703 3.69434905052185059 -1 -0 -0 1
-0.41123691201210022 0.289746642112731934 -1 -0 -0 1
-0.726554632186889648 2.18490004539489746 -1 -0 -0 1
-0.526076018810272217 0.554145634174346924 -1 -0 -0 1
-0.407080650329589844 0.370023787021636963 -1 -0 -0 1
-0.539151966571807861 1.08678281307220459 -1 -0 -0 1
-0.589206457138061523 1.06944561004638672 -1 -0 -0 1
-0.506509721279144287 0.355324625968933105 -1 -0 -0 1
-0.506369650363922119 0.621875345706939697 -1 -0 -0 1
-0.828049600124359131 2.91362977027893066 -1 -0 -0 1
-0.62820810079574585 1.50732421875 -1 -0 -0 1
-0.457026481628417969 0.289491832256317139 -1 -0 -0 1
-0.426601767539978027 0.41783219575881958 -1 -0 -0 1
-0.741923511028289795 2.25512933731079102 -1 -0 -0 1
-0.760720491409301758 2.45540237426757812 -1 -0 -0 1
-0.891612410545349121 3.17632937431335449 -1 -0 -0 1
-0.682006478309631348 1.26874613761901855 -1 -0 -0 1
-0.796136438846588135 2.12196469306945801 -1 -0 -0 1
-0.691378116607666016 1.55018401145935059 -1 -0 -0 1
-0.713553130626678467 1.80469667911529541 -1 -0 -0 1
-0.802275002002716064 2.33684539794921875 -1 -0 -0 1
-0.719564199447631836 1.60673272609710693 -1 -0 -0 1
-0.759014666080474854 1.71580123901367188 -1 -0 -0 1
-0.803344964981079102 2.06926083564758301 -1 -0 -0 1
-0.828504681587219238 2.4523003101348877 -1 -0 -0 1
-0.747103571891784668 2.07365155220031738 -1 -0 -0 1
-0.776806354522705078 1.8902280330657959 -1 -0 -0 1
-0.524176120758056641 0.203919693827629089 -1 -0 -0 1
-0.848291993141174316 2.82978677749633789 -1 -0 -0 1
-0.710898637771606445 1.2241750955581665 -1 -0 -0 1
-0.626419365406036377 0.935401797294616699 -1 -0 -0 1
-0.74329829216003418 1.56089520454406738 -1 -0 -0 1
-0.707209527492523193 1.0705420970916748 -1 -0 -0 1
-0.645091712474822998 0.536294937133789062 -1 -0 -0 1
-0.711386322975158691 1.38399672508239746 -1 -0 -0 1
-0.841819882392883301 2.54078102111816406 -1 -0 -0 1
-0.650835692882537842 0.786883711814880371 -1 -0 -0 1
-0.751774609088897705 1.76896953582763672 -1 -0 -0 1
-0.585719645023345947 0.467743784189224243 -1 -0 -0 1
-0.949241101741790771 3.48711133003234863 -1 -0 -0 1
-0.673197746276855469 1.11685562133789062 -1 -0 -0 1
-0.843097865581512451 2.73966073989868164 -1 -0 -0 1
-0.674774467945098877 0.744159221649169922 -1 -0 -0 1
-0.631969571113586426 1.17369270324707031 -1 -0 -0 1
-0.690356075763702393 0.877262711524963379 -1 -0 -0 1
-0.604919314384460449 0.889599919319152832 -1 -0 -0 1
-0.664792239665985107 1.04296350479125977 -1 -0 -0 1
-0.586506664752960205 0.572993755340576172 -1 -0 -0 1
-0.583562135696411133 0.257669329643249512 -1 -0 -0 1
-0.57549595832824707 0.719786345958709717 -1 -0 -0 1
-0.845848441123962402 2.62674832344055176 -1 -0 -0 1
-0.56272512674331665 0.421114534139633179 -1 -0 -0 1
-0.563013136386871338 0.368677347898483276 -1 -0 -0 1
-0.574257731437683105 0.520482718944549561 -1 -0 -0 1
-0.635416865348815918 0.701721429824829102 -1 -0 -0 1
-0.760497689247131348 1.94928956031799316 -1 -0 -0 1
-0.588476300239562988 0.324917644262313843 -1 -0 -0 1
-0.697746038436889648 1.6576230525970459 -1 -0 -0 1
-0.727324903011322021 1.85540056228637695 -1 -0 -0 1
-0.708626627922058105 1.16016638278961182 -1 -0 -0 1
-0.67143714427947998 0.967077493667602539 -1 -0 -0 1
-0.715910732746124268 1.48102116584777832 -1 -0 -0 1
-0.621129512786865234 1.11299514770507812 -1 -0 -0 1
-0.622314751148223877 0.835508525371551514 -1 -0 -0 1
-0.801642298698425293 2.28928589820861816 -1 -0 -0 1
-0.65084230899810791 0.653465628623962402 -1 -0 -0 1
-0.710018932819366455 1.30918920040130615 -1 -0 -0 1
-0.609705984592437744 0.214297458529472351 -1 -0 -0 1
-0.868024051189422607 2.66876959800720215 -1 -0 -0 1
-0.901026308536529541 3.03213024139404297 -1 -0 -0 1
-0.611919879913330078 0.386856049299240112 -1 -0 -0 1
-0.599613606929779053 0.646347463130950928 -1 -0 -0 1
-0.633862793445587158 0.427977174520492554 -1 -0 -0 1
-0.624881565570831299 0.993681669235229492 -1 -0 -0 1
-0.808898687362670898 2.19258785247802734 -1 -0 -0 1
-0.708373427391052246 1.71194064617156982 -1 -0 -0 1
-0.610156655311584473 0.758652985095977783 -1 -0 -0 1
-0.933066725730895996 0.539815247058868408 -1 0 -0 1
-0.999452054500579834 2.25029182434082031 -1 0 -0 1
-0.961211681365966797 2.12579202651977539 -1 0 -0 1
-0.961097598075866699 1.6417464017868042 -1 0 -0 1
-0.942615628242492676 1.04782950878143311 -1 0 -0 1
-0.998214960098266602 3.04635405540466309 -1 0 -0 1
-0.996827363967895508 3.56604242324829102 -1 0 -0 1
-0.886120200157165527 0.524394869804382324 -1 0 -0 1
-0.981901049613952637 1.46848046779632568 -1 0 -0 1
-0.941801249980926514 0.608992934226989746 -1 0 -0 1
-0.96833348274230957 1.86308598518371582 -1 0 -0 1
-0.92967987060546875 0.421415418386459351 -1 0 -0 1
-0.965815067291259766 0.65702444314956665 -1 0 -0 1
-0.99097740650177002 2.2036292552947998 -1 0 -0 1
-0.976363658905029297 1.00579512119293213 -1 0 -0 1
-0.963071465492248535 0.702742516994476318 -1 0 -0 1
-0.978790223598480225 2.06574058532714844 -1 0 -0 1
-0.968281865119934082 0.757489621639251709 -1 0 -0 1
-0.998509824275970459 2.53954362869262695 -1 0 -0 1
-0.995838642120361328 0.799212753772735596 -1 0 -0 1
-0.993957161903381348 1.93006408214569092 -1 0 -0 1
-0.971884727478027344 1.71377444267272949 -1 0 -0 1
-0.909326851367950439 0.723813056945800781 -1 0 -0 1
-0.945730268955230713 1.31517672538757324 -1 0 -0 1
-0.971443772315979004 2.59227728843688965 -1 0 -0 1
-0.957513332366943359 2.50191688537597656 -1 0 -0 1
-0.939287722110748291 0.362943500280380249 -1 0 -0 1
-0.988522052764892578 0.934958338737487793 -1 0 -0 1
-0.978635251522064209 2.76855349540710449 -1 0 -0 1
-0.91341710090637207 0.895388543605804443 -1 0 -0 1
-0.89852064847946167 0.594678342342376709 -1 0 -0 1
-0.96349799633026123 1.5241396427154541 -1 0 -0 1
-0.96655505895614624 0.500683188438415527 -1 0 -0 1
-0.922014296054840088 1.26907253265380859 -1 0 -0 1
-0.978729486465454102 3.3001854419708252 -1 0 -0 1
-0.956413328647613525 0.872436165809631348 -1 0 -0 1
-0.884826362133026123 0.256406098604202271 -1 0 -0 1
-0.998684525489807129 3.47396612167358398 -1 0 -0 1
-0.987549364566802979 1.10705232620239258 -1 0 -0 1
-0.939994633197784424 1.153190016746521 -1 0 -0 1
-0.932950437068939209 1.20689475536346436 -1 0 -0 1
-0.939879775047302246 1.94016718864440918 -1 0 -0 1
-0.975045680999755859 1.41740620136260986 -1 0 -0 1
-0.961616098880767822 1.98919546604156494 -1 0 -0 1
-0.960855960845947266 0.211106956005096436 -1 0 -0 1
-0.992733955383300781 1.32058084011077881 -1 0 -0 1
-0.911638319492340088 0.77431100606918335 -1 0 -0 1
-0.923605144023895264 0.996224343776702881 -1 0 -0 1
-0.945171177387237549 1.76782190799713135 -1 0 -0 1
-0.912558794021606445 0.665284574031829834 -1 0 -0 1
-0.922731518745422363 0.315280497074127197 -1 0 -0 1
-0.996277570724487305 2.38241958618164062 -1 0 -0 1
-0.936302661895751953 0.260479271411895752 -1 0 -0 1
-0.865023910999298096 0.78634178638458252 -1 -0 -0 1
-0.819709360599517822 0.683489620685577393 -1 -0 -0 1
-0.859164834022521973 1.06514894962310791 -1 -0 -0 1
-0.885248064994812012 1.19348776340484619 -1 -0 -0 1
-0.785986959934234619 0.721399188041687012 -1 -0 -0 1
-0.878463327884674072 0.403376996517181396 -1 -0 -0 1
-0.827475309371948242 0.275710314512252808 -1 -0 -0 1
-0.85226130485534668 0.905214309692382812 -1 -0 -0 1
-0.920026957988739014 1.89133667945861816 -1 -0 -0 1
-0.77800673246383667 0.584651708602905273 -1 -0 -0 1
-0.898427426815032959 1.12423563003540039 -1 -0 -0 1
-0.851737558841705322 1.54666793346405029 -1 -0 -0 1
-0.80917966365814209 0.540143013000488281 -1 -0 -0 1
-0.953691840171813965 2.81011748313903809 -1 -0 -0 1
-0.938004195690155029 2.38295650482177734 -1 -0 -0 1
-0.809399843215942383 0.397966861724853516 -1 -0 -0 1
-0.808066129684448242 0.923220694065093994 -1 -0 -0 1
-0.778318405151367188 0.465486794710159302 -1 -0 -0 1
-0.873741626739501953 1.73575353622436523 -1 -0 -0 1
-0.769225001335144043 0.235421732068061829 -1 -0 -0 1
-0.922062277793884277 2.63869380950927734 -1 -0 -0 1
-0.932493388652801514 2.72513842582702637 -1 -0 -0 1
-0.95384746789932251 2.67571210861206055 -1 -0 -0 1
-0.903748989105224609 1.54986476898193359 -1 -0 -0 1
-0.865006685256958008 1.90595519542694092 -1 -0 -0 1
-0.847333669662475586 0.327192425727844238 -1 -0 -0 1
-0.904103517532348633 1.39694321155548096 -1 -0 -0 1
-0.912587583065032959 1.66230428218841553 -1 -0 -0 1
-0.891481459140777588 1.30757951736450195 -1 -0 -0 1
-0.872023522853851318 0.970098972320556641 -1 -0 -0 1
-0.831453323364257812 1.30703413486480713 -1 -0 -0 1
-0.893433630466461182 2.20166993141174316 -1 -0 -0 1
-0.875210762023925781 1.48326277732849121 -1 -0 -0 1
-0.883504271507263184 2.15148043632507324 -1 -0 -0 1
-0.817352235317230225 1.13008654117584229 -1 -0 -0 1
-0.878516256809234619 0.858821511268615723 -1 -0 -0 1
-0.889256179332733154 2.00108885765075684 -1 -0 -0 1
-0.806100726127624512 1.04444396495819092 -1 -0 -0 1
-0.942598283290863037 2.54619836807250977 -1 -0 -0 1
-0.830473423004150391 1.3571469783782959 -1 -0 -0 1
-0.961288154125213623 3.01253461837768555 -1 -0 -0 1
-0.9666595458984375 3.4217078685760498 -1 -0 -0 1
-0.844931602478027344 1.40297281742095947 -1 -0 -0 1
-0.866546869277954102 1.8151390552520752 -1 -0 -0 1
-0.938258707523345947 2.23012995719909668 -1 -0 -0 1
-0.866084694862365723 0.697448074817657471 -1 -0 -0 1
-0.876915156841278076 1.63447749614715576 -1 -0 -0 1
-0.860988736152648926 0.633964657783508301 -1 -0 -0 1
-0.894145965576171875 2.10383176803588867 -1 -0 -0 1
-0.940465629100799561 2.28151345252990723 -1 -0 -0 1
-0.827804982662200928 1.17767691612243652 -1 -0 -0 1
-0.824313104152679443 0.980332255363464355 -1 -0 -0 1
-0.825869083404541016 0.596631884574890137 -1 -0 -0 1
-0.913365483283996582 2.58896327018737793 -1 -0 -0 1
-0.949976325035095215 2.915313720703125 -1 -0 -0 1
-0.927957534790039062 2.46176004409790039 -1 -0 -0 1
-0.785493969917297363 0.33100515604019165 -1 -0 -0 1
-0.931908309459686279 2.17590737342834473 -1 -0 -0 1
-0.866829514503479004 0.451314717531204224 -1 -0 -0 1
-0.924834072589874268 2.0504150390625 -1 -0 -0 1
-0.828161954879760742 0.82093501091003418 -1 -0 -0 1
-0.787598848342895508 0.77775496244430542 -1 -0 -0 1
-0.845684349536895752 0.742880940437316895 -1 -0 -0 1
-0.809117257595062256 1.74703097343444824 -1 -0 -0 1
-0.646070778369903564 0.254206150770187378 -1 -0 -0 1
-0.757460236549377441 1.35937166213989258 -1 -0 -0 1
-0.87732011079788208 2.26373195648193359 -1 -0 -0 1
-0.772405683994293213 1.18410146236419678 -1 -0 -0 1
-0.96044999361038208 3.53939580917358398 -1 -0 -0 1
-0.83278203010559082 2.2523810863494873 -1 -0 -0 1
-0.691958069801330566 0.332093268632888794 -1 -0 -0 1
-0.691922485828399658 0.532029092311859131 -1 -0 -0 1
-0.774324119091033936 1.50823473930358887 -1 -0 -0 1
-0.781762123107910156 1.25113844871520996 -1 -0 -0 1
-0.690294206142425537 0.817709922790527344 -1 -0 -0 1
-0.926878750324249268 3.10027670860290527 -1 -0 -0 1
-0.697272837162017822 0.401540637016296387 -1 -0 -0 1
-0.87539064884185791 2.39356040954589844 -1 -0 -0 1
-0.893197357654571533 2.53868818283081055 -1 -0 -0 1
-0.639135062694549561 0.323914945125579834 -1 -0 -0 1
-0.812238693237304688 1.83552467823028564 -1 -0 -0 1
-0.928708553314208984 3.22276663780212402 -1 -0 -0 1
-0.734511733055114746 0.647760450839996338 -1 -0 -0 1
-0.867313146591186523 2.33932256698608398 -1 -0 -0 1
-0.770941257476806641 0.875562012195587158 -1 -0 -0 1
-0.838833808898925781 1.94802236557006836 -1 -0 -0 1
-0.776262760162353516 1.41978800296783447 -1 -0 -0 1
-0.795136392116546631 1.55206906795501709 -1 -0 -0 1
-0.770370960235595703 1.60305726528167725 -1 -0 -0 1
-0.821994960308074951 1.45360982418060303 -1 -0 -0 1
-0.896146774291992188 2.9427483081817627 -1 -0 -0 1
-0.693040907382965088 0.619338810443878174 -1 -0 -0 1
-0.841190338134765625 2.10424304008483887 -1 -0 -0 1
-0.699001729488372803 0.688270747661590576 -1 -0 -0 1
-0.77786862850189209 0.96911996603012085 -1 -0 -0 1
-0.755815446376800537 0.923734068870544434 -1 -0 -0 1
-0.898482203483581543 2.76081323623657227 -1 -0 -0 1
-0.764018714427947998 0.508410036563873291 -1 -0 -0 1
-0.872834980487823486 2.48249650001525879 -1 -0 -0 1
-0.742633283138275146 1.10584104061126709 -1 -0 -0 1
-0.847928047180175781 2.0455474853515625 -1 -0 -0 1
-0.77013087272644043 0.830101072788238525 -1 -0 -0 1
-0.729912221431732178 0.782207846641540527 -1 -0 -0 1
-0.733849167823791504 1.00967860221862793 -1 -0 -0 1
-0.80248105525970459 1.68367981910705566 -1 -0 -0 1
-0.758355140686035156 0.418445497751235962 -1 -0 -0 1
-0.924451649188995361 2.98418283462524414 -1 -0 -0 1
-0.896948695182800293 2.81569743156433105 -1 -0 -0 1
-0.721971988677978516 0.477782338857650757 -1 -0 -0 1
-0.742061376571655273 0.302250891923904419 -1 -0 -0 1
-0.831294238567352295 1.60863387584686279 -1 -0 -0 1
-0.954379260540008545 3.35767388343811035 -1 -0 -0 1
-0.808191955089569092 2.00563740730285645 -1 -0 -0 1
-0.942398369312286377 3.17397546768188477 -1 -0 -0 1
1 0.842097640037536621 0.258447527885437012 -1 -0 -0
1 1.20701813697814941 0.0595353282988071442 -1 -0 -0
1 2.57590270042419434 -0.424868524074554443 -1 -0 -0
1 3.2488245964050293 -0.703709840774536133 -1 -0 -0
1 1.05495059490203857 0.0824602320790290833 -1 -0 -0
1 0.28781697154045105 0.400237888097763062 -1 -0 -0
1 1.66286790370941162 -0.063779093325138092 -1 -0 -0
1 1.10350680351257324 0.0788485035300254822 -1 -0 -0
1 2.91217708587646484 -0.593551754951477051 -1 -0 -0
1 0.890473544597625732 0.159897774457931519 -1 -0 -0
1 0.568296313285827637 0.317452073097229004 -1 -0 -0
1 0.395163416862487793 0.324721843004226685 -1 -0 -0
1 0.695158064365386963 0.28222423791885376 -1 -0 -0
1 2.82908034324645996 -0.529831528663635254 -1 -0 -0
1 1.2026139497756958 0.116099126636981964 -1 -0 -0
1 1.91703152656555176 -0.176827877759933472 -1 -0 -0
1 1.61819148063659668 -0.0771470889449119568 -1 -0 -0
1 2.63820314407348633 -0.457634478807449341 -1 -0 -0
1 0.814172089099884033 0.209061667323112488 -1 -0 -0
1 1.88799762725830078 -0.221331387758255005 -1 -0 -0
1 0.363774269819259644 0.367662668228149414 -1 -0 -0
1 0.959245741367340088 0.183582976460456848 -1 -0 -0
1 0.388040661811828613 0.443695276975631714 -1 -0 -0
1 1.1517035961151123 0.0913977622985839844 -1 -0 -0
1 0.572462320327758789 0.371740072965621948 -1 -0 -0
1 2.66245365142822266 -0.503147900104522705 -1 -0 -0
1 3.11435794830322266 -0.654225289821624756 -1 -0 -0
1 0.785653829574584961 0.280469328165054321 -1 -0 -0
1 2.47097969055175781 -0.421908855438232422 -1 -0 -0
1 0.639423608779907227 0.30937764048576355 -1 -0 -0
1 1.82422733306884766 -0.171051755547523499 -1 -0 -0
1 1.99686908721923828 -0.222248226404190063 -1 -0 -0
1 0.51977306604385376 0.314664244651794434 -1 -0 -0
1 0.52508997917175293 0.391085147857666016 -1 -0 -0
1 0.861167430877685547 0.206888914108276367 -1 -0 -0
1 0.738941371440887451 0.308517336845397949 -1 -0 -0
1 0.338352292776107788 0.459345847368240356 -1 -0 -0
1 2.04108214378356934 -0.275718748569488525 -1 -0 -0
1 2.41166806221008301 -0.359904348850250244 -1 -0 -0
1 2.86535120010375977 -0.56326216459274292 -1 -0 -0
1 0.753568172454833984 0.206015810370445251 -1 -0 -0
1 1.12336814403533936 0.138503208756446838 -1 -0 -0
1 1.45777785778045654 -0.00632184837013483047 -1 -0 -0
1 0.414854675531387329 0.383338689804077148 -1 -0 -0
1 2.34404563903808594 -0.353880405426025391 -1 -0 -0
1 1.04619944095611572 0.18445923924446106 -1 -0 -0
1 1.75744092464447021 -0.153619006276130676 -1 -0 -0
1 1.07767713069915771 0.148961558938026428 -1 -0 -0
1 1.34802722930908203 -0.0180064067244529724 -1 -0 -0
1 3.64643025398254395 -0.859657168388366699 -1 -0 -0
1 1.01560688018798828 0.148247897624969482 -1 -0 -0
1 1.31323409080505371 0.0381102263927459717 -1 -0 -0
1 2.77901077270507812 -0.50699847936630249 -1 -0 -0
1 0.59471052885055542 0.276326447725296021 -1 -0 -0
1 1.26211845874786377 0.106636315584182739 -1 -0 -0
1 2.29368686676025391 -0.36053118109703064 -1 -0 -0
1 1.71242916584014893 -0.122465379536151886 -1 -0 -0
1 1.51589083671569824 -0.0671677663922309875 -1 -0 -0
1 0.912850797176361084 0.212255507707595825 -1 -0 -0
1 1.27520275115966797 0.00896763242781162262 -1 -0 -0
1 0.489746272563934326 0.353833943605422974 -1 -0 -0
1 1.4085993766784668 0.0157796945422887802 -1 -0 -0
1 2.12792134284973145 -0.266183316707611084 -1 -0 -0
1 2.24233436584472656 -0.341439187526702881 -1 -0 -0
1 1.77947151660919189 -0.996879160404205322 -1 -0 -0
1 0.840585231781005859 -0.909485220909118652 -1 -0 -0
1 1.65189003944396973 -0.93395620584487915 -1 -0 -0
1 1.04061365127563477 -0.930180370807647705 -1 -0 -0
1 1.30120170116424561 -0.948761582374572754 -1 -0 -0
1 0.667133152484893799 -0.999598681926727295 -1 -0 -0
1 1.6112830638885498 -0.954883873462677002 -1 -0 -0
1 1.1836320161819458 -0.998760998249053955 -1 -0 -0
1 0.130751669406890869 -0.942950606346130371 -1 -0 -0
1 0.0117925321683287621 -0.967512071132659912 -1 -0 -0
1 1.24650096893310547 -0.922256708145141602 -1 -0 -0
1 3.63741850852966309 -0.99855196475982666 -1 -0 -0
1 3.18948483467102051 -0.984551906585693359 -1 -0 -0
1 0.502044260501861572 -0.972785294055938721 -1 -0 -0
1 0.558683454990386963 -0.958063125610351562 -1 -0 -0
1 3.92575383186340332 -0.999779343605041504 -1 -0 -0
1 0.271266847848892212 -0.897054374217987061 -1 -0 -0
1 0.939223229885101318 -0.951398551464080811 -1 -0 -0
1 1.98117077350616455 -0.952324330806732178 -1 -0 -0
1 0.89744865894317627 -0.923296272754669189 -1 -0 -0
1 0.236194014549255371 -0.93006742000579834 -1 -0 -0
1 0.984770357608795166 -0.934024393558502197 -1 -0 -0
1 0.896491050720214844 -0.978181779384613037 -1 -0 -0
1 0.417378455400466919 -0.911325752735137939 -1 -0 -0
1 1.87605416774749756 -0.95380789041519165 -1 -0 -0
1 1.34707772731781006 -0.930837035179138184 -1 -0 -0
1 0.617735743522644043 -0.985050857067108154 -1 -0 -0
1 1.63865339756011963 -0.997755587100982666 -1 -0 -0
1 1.9328385591506958 -0.974192619323730469 -1 -0 -0
1 3.00461673736572266 -0.983493447303771973 -1 -0 -0
1 0.674538493156433105 -0.943217098712921143 -1 -0 -0
1 0.0727353766560554504 -0.92589867115020752 -1 -0 -0
1 0.357235729694366455 -0.994099974632263184 -1 -0 -0
1 2.20302963256835938 -0.991812586784362793 -1 -0 -0
1 1.52649891376495361 -0.97616654634475708 -1 -0 -0
1 0.470847278833389282 -0.938945770263671875 -1 -0 -0
1 0.177840068936347961 -0.903488218784332275 -1 -0 -0
1 2.55992388725280762 -0.996561288833618164 -1 -0 -0
1 3.12315154075622559 -0.975242257118225098 -1 -0 -0
1 0.996014773845672607 -0.985836029052734375 -1 -0 -0
1 1.19606614112854004 -0.942406594753265381 -1 -0 -0
1 0.293314039707183838 -0.937620341777801514 -1 -0 -0
1 0.197516635060310364 -0.992638111114501953 -1 -0 -0
1 0.133455649018287659 -0.882376551628112793 -1 -0 -0
1 1.09997868537902832 -0.945192098617553711 -1 -0 -0
1 2.45250654220581055 -0.957589089870452881 -1 -0 -0
1 0.754462897777557373 -0.957964599132537842 -1 -0 -0
1 2.66693687438964844 -0.992679476737976074 -1 -0 -0
1 2.13900065422058105 -0.973729968070983887 -1 -0 -0
1 0.771050631999969482 -0.910678982734680176 -1 -0 -0
1 2.7619328498840332 -0.982866168022155762 -1 -0 -0
1 0.401463061571121216 -0.960052728652954102 -1 -0 -0
1 1.79187774658203125 -0.952221870422363281 -1 -0 -0
1 1.44281864166259766 -0.930987238883972168 -1 -0 -0
1 0.0127692678943276405 -0.888823390007019043 -1 -0 -0
1 1.714729905128479 -0.953398585319519043 -1 -0 -0
1 2.38776087760925293 -0.997508406639099121 -1 -0 -0
1 1.31500649452209473 0.37143746018409729 -1 -0 0
1 3.77621793746948242 -0.380683302879333496 -1 -0 0
1 1.52935922145843506 0.6897163987159729 -1 -0 0
1 3.09278726577758789 0.411613017320632935 -1 -0 0
1 3.22881889343261719 0.470633983612060547 -1 -0 0
1 3.26787805557250977 -0.126322776079177856 -1 -0 0
1 0.963894188404083252 0.540754258632659912 -1 -0 0
1 3.13202261924743652 -0.380278199911117554 -1 -0 0
1 3.54994583129882812 -0.42473524808883667 -1 -0 0
1 3.71977496147155762 -0.451362103223800659 -1 -0 0
1 3.99678754806518555 0.041520189493894577 -1 -0 0
1 2.33761310577392578 -0.0172683410346508026 -1 -0 0
1 3.9801325798034668 0.249440088868141174 -1 -0 0
1 1.39346718788146973 0.159005910158157349 -1 -0 0
1 3.78644251823425293 0.635093212127685547 -1 -0 0
1 3.56434798240661621 0.81254500150680542 -1 -0 0
1 1.21770799160003662 0.409787684679031372 -1 -0 0
1 3.51969623565673828 0.195294052362442017 -1 -0 0
1 2.41265368461608887 0.294089913368225098 -1 -0 0
1 3.23484683036804199 0.522023320198059082 -1 -0 0
1 3.0757744312286377 -0.173284575343132019 -1 -0 0
1 1.77597463130950928 0.63737785816192627 -1 -0 0
1 1.75827836990356445 0.0654755458235740662 -1 -0 0
1 1.86653029918670654 0.684971630573272705 -1 -0 0
1 3.19922184944152832 -0.606339752674102783 -1 -0 0
1 3.7341771125793457 0.612696349620819092 -1 -0 0
1 2.36291313171386719 0.7729148268699646 -1 -0 0
1 3.46187543869018555 0.6687355637550354 -1 -0 0
1 3.29435300827026367 -0.541808545589447021 -1 -0 0
1 1.95031344890594482 0.547251641750335693 -1 -0 0
1 3.90155148506164551 0.0954586416482925415 -1 -0 0
1 3.2285006046295166 0.148330777883529663 -1 -0 0
1 3.82961201667785645 -0.481793045997619629 -1 -0 0
1 3.55407166481018066 0.631895124912261963 -1 -0 0
1 1.81643462181091309 -0.0168800279498100281 -1 -0 0
1 1.14074158668518066 0.363707959651947021 -1 -0 0
1 2.24498724937438965 0.0361270904541015625 -1 -0 0
1 3.34157419204711914 0.360990762710571289 -1 -0 0
1 2.62162876129150391 0.687072873115539551 -1 -0 0
1 3.89833211898803711 -0.547977447509765625 -1 -0 0
1 1.03940939903259277 0.662556886672973633 -1 -0 0
1 1.87867176532745361 0.525892674922943115 -1 -0 0
1 3.77422571182250977 0.0658880248665809631 -1 -0 0
1 1.97714066505432129 0.0725465640425682068 -1 -0 0
1 2.32433509826660156 0.290004342794418335 -1 -0 0
1 3.93375039100646973 -0.403241276741027832 -1 -0 0
1 2.36884260177612305 0.492510110139846802 -1 -0 0
1 2.58160901069641113 0.24784320592880249 -1 -0 0
1 1.66119599342346191 0.329536139965057373 -1 -0 0
1 3.93187212944030762 0.716401994228363037 -1 -0 0
1 0.95838242769241333 0.351028800010681152 -1 -0 0
1 1.63600480556488037 0.591632485389709473 -1 -0 0
1 2.10914158821105957 0.443022042512893677 -1 -0 0
1 2.91783356666564941 -0.153557747602462769 -1 -0 0
1 2.46464014053344727 0.249577328562736511 -1 -0 0
1 2.25143170356750488 0.143903493881225586 -1 -0 0
1 3.19419479370117188 0.312080949544906616 -1 -0 0
1 2.00073575973510742 0.359813958406448364 -1 -0 0
1 3.0897369384765625 -0.350419044494628906 -1 -0 0
1 2.50602507591247559 0.101480245590209961 -1 -0 0
1 1.82621479034423828 0.475129485130310059 -1 -0 0
1 3.00747537612915039 0.771825015544891357 -1 -0 0
1 1.70797157287597656 0.649710655212402344 -1 -0 0
1 1.55741703510284424 0.568364083766937256 -1 -0 0
1 2.16862630844116211 -0.181733205914497375 -1 -0 0
1 3.67069673538208008 0.247209876775741577 -1 -0 0
1 2.45027637481689453 -0.264301419258117676 -1 -0 0
1 2.5965573787689209 0.564428865909576416 -1 -0 0
1 3.43637609481811523 0.332393795251846313 -1 -0 0
1 3.57235431671142578 -0.481090426445007324 -1 -0 0
1 3.89597225189208984 -0.774113714694976807 -1 -0 0
1 2.39283442497253418 0.338143587112426758 -1 -0 0
1 2.94954371452331543 -0.211671680212020874 -1 -0 0
1 3.53048062324523926 0.0177686847746372223 -1 -0 0
1 1.59052860736846924 0.334294736385345459 -1 -0 0
1 1.66382169723510742 0.470049560070037842 -1 -0 0
1 2.5115208625793457 -0.261785596609115601 -1 -0 0
1 2.09133672714233398 0.763173222541809082 -1 -0 0
1 2.58962225914001465 0.496648102998733521 -1 -0 0
1 2.80559992790222168 0.379000663757324219 -1 -0 0
1 0.895344674587249756 0.625333964824676514 -1 -0 0
1 3.02751612663269043 0.713863968849182129 -1 -0 0
1 3.44207572937011719 -0.711670458316802979 -1 -0 0
1 2.7024681568145752 0.257526993751525879 -1 -0 0
1 1.8058398962020874 0.391676932573318481 -1 -0 0
1 3.20223426818847656 -0.135958015918731689 -1 -0 0
1 1.23819458484649658 0.518953144550323486 -1 -0 0
1 3.83980965614318848 -0.836226820945739746 -1 -0 0
1 3.9724738597869873 0.380368471145629883 -1 -0 0
1 3.22142672538757324 0.663149058818817139 -1 -0 0
1 2.92466235160827637 0.116457991302013397 -1 -0 0
1 3.77928543090820312 -0.710847318172454834 -1 -0 0
1 2.24353981018066406 0.452155381441116333 -1 -0 0
1 2.79808759689331055 -0.324701994657516479 -1 -0 0
1 0.768967270851135254 0.630141496658325195 -1 -0 0
1 0.893005311489105225 0.419687390327453613 -1 -0 0
1 1.89125561714172363 0.604763507843017578 -1 -0 0
1 3.85959887504577637 0.945366501808166504 -1 -0 0
1 2.932861328125 -0.00786886177957057953 -1 -0 0
1 3.62483954429626465 0.273310244083404541 -1 -0 0
1 2.7049107551574707 0.0682504177093505859 -1 -0 0
1 3.72262763977050781 0.285652130842208862 -1 -0 0
1 2.82868623733520508 0.180012539029121399 -1 -0 0
1 0.88818669319152832 0.498901039361953735 -1 -0 0
1 3.49261808395385742 -0.432187646627426147 -1 -0 0
1 1.6054995059967041 0.139073505997657776 -1 -0 0
1 2.3816382884979248 -0.0371285267174243927 -1 -0 0
1 3.62104368209838867 0.118020191788673401 -1 -0 0
1 3.12509393692016602 0.523742914199829102 -1 -0 0
1 2.70188593864440918 0.376518577337265015 -1 -0 0
1 2.94329047203063965 0.0732303634285926819 -1 -0 0
1 3.00756573677062988 -0.370845437049865723 -1 -0 0
1 1.97349452972412109 0.62938392162322998 -1 -0 0
1 3.98327827453613281 0.849975645542144775 -1 -0 0
1 2.89416766166687012 0.49299544095993042 -1 -0 0
1 2.94979047775268555 -0.380586296319961548 -1 -0 0
1 2.51948976516723633 0.326251983642578125 -1 -0 0
1 3.98114967346191406 0.625040054321289062 -1 -0 0
1 3.93599057197570801 0.417248547077178955 -1 -0 0
1 3.79260087013244629 -0.548063158988952637 -1 -0 0
1 0.617527008056640625 0.60454249382019043 -1 -0 0
1 2.24738931655883789 0.247102618217468262 -1 -0 0
1 3.80331563949584961 0.876718640327453613 -1 -0 0
1 2.97065496444702148 -0.0445587560534477234 -1 -0 0
1 0.84054267406463623 0.63372039794921875 -1 -0 0
1 3.63117122650146484 0.168043896555900574 -1 -0 0
