ply
format ascii 1.0
element vertex 906
property float x
property float y
property float z
property float nx
property float ny
property float nz
end_header
0.711969494819641113 3.26443576812744141 1 -0 -0 -1
0.369222015142440796 2.43669915199279785 1 -0 -0 -1
0.0162494778633117676 0.937995612621307373 1 -0 -0 -1
-0.0858343318104743958 2.00866413116455078 1 -0 -0 -1
-0.510152041912078857 2.52890729904174805 1 -0 -0 -1
0.461032956838607788 2.08385729789733887 1 -0 -0 -1
0.209755033254623413 2.45348000526428223 1 -0 -0 -1
-0.284176826477050781 1.98125565052032471 1 -0 -0 -1
0.691539943218231201 2.99381041526794434 1 -0 -0 -1
0.0526470541954040527 1.37811565399169922 1 -0 -0 -1
0.259525418281555176 1.35897159576416016 1 -0 -0 -1
0.378532499074935913 1.70931518077850342 1 -0 -0 -1
-0.00489684892818331718 1.09797680377960205 1 -0 -0 -1
-0.301385879516601562 1.35995090007781982 1 -0 -0 -1
-0.417645961046218872 1.9214557409286499 1 -0 -0 -1
0.59988778829574585 3.92557883262634277 1 -0 -0 -1
0.153386786580085754 0.766008079051971436 1 -0 -0 -1
-0.141937315464019775 0.675795495510101318 1 -0 -0 -1
-0.0202864706516265869 3.61112618446350098 1 -0 -0 -1
-0.681535899639129639 3.64844799041748047 1 -0 -0 -1
-0.360561937093734741 3.46448063850402832 1 -0 -0 -1
0.224792376160621643 1.00417065620422363 1 -0 -0 -1
-0.0522080175578594208 1.63986694812774658 1 -0 -0 -1
-0.725461304187774658 3.38719439506530762 1 -0 -0 -1
0.173649340867996216 3.04801011085510254 1 -0 -0 -1
0.155952721834182739 0.991836607456207275 1 -0 -0 -1
-0.179972648620605469 2.00206494331359863 1 -0 -0 -1
0.0582753755152225494 0.799141764640808105 1 -0 -0 -1
-0.29923933744430542 3.22958588600158691 1 -0 -0 -1
-0.943146824836730957 3.85530185699462891 1 -0 -0 -1
-0.053120490163564682 0.4340229332447052 1 -0 -0 -1
0.70297926664352417 3.61425209045410156 1 -0 -0 -1
-0.040547296404838562 1.05347752571105957 1 -0 -0 -1
0.0125788319855928421 1.51855337619781494 1 -0 -0 -1
-0.60543525218963623 2.99242687225341797 1 -0 -0 -1
-0.650695264339447021 3.01265192031860352 1 -0 -0 -1
-0.0328189507126808167 0.65073162317276001 1 -0 -0 -1
0.101701058447360992 0.757813215255737305 1 -0 -0 -1
-0.355765730142593384 1.8172152042388916 1 -0 -0 -1
0.0747395306825637817 3.06159758567810059 1 -0 -0 -1
0.531798124313354492 3.20577383041381836 1 -0 -0 -1
0.144871264696121216 3.3649446964263916 1 -0 -0 -1
-0.315370500087738037 3.6627504825592041 1 -0 -0 -1
-0.26683354377746582 1.42642009258270264 1 -0 -0 -1
-0.240681380033493042 1.21003031730651855 1 -0 -0 -1
-0.547864615917205811 2.85059738159179688 1 -0 -0 -1
-0.215269520878791809 3.80589580535888672 1 -0 -0 -1
0.259199172258377075 2.91286158561706543 1 -0 -0 -1
-0.498249083757400513 3.4233253002166748 1 -0 -0 -1
-0.180322408676147461 2.75455832481384277 1 -0 -0 -1
0.930366039276123047 0.87794649600982666 1 -0 -0 -1
0.926567614078521729 0.707893073558807373 1 -0 -0 -1
0.938525617122650146 1.59389352798461914 1 -0 -0 -1
0.939828276634216309 1.23378479480743408 1 -0 -0 -1
0.93567812442779541 1.72119224071502686 1 -0 -0 -1
0.886306822299957275 0.360540062189102173 1 -0 -0 -1
0.928834080696105957 1.52945363521575928 1 -0 -0 -1
0.890953004360198975 0.157434329390525818 1 -0 -0 -1
0.941765427589416504 1.14476335048675537 1 -0 -0 -1
0.941766083240509033 2.08448100090026855 1 -0 -0 -1
0.916356027126312256 0.235809013247489929 1 -0 -0 -1
0.908901453018188477 0.414933353662490845 1 -0 -0 -1
0.923382043838500977 1.4221721887588501 1 -0 -0 -1
0.991379499435424805 3.49182701110839844 1 -0 -0 -1
0.923909604549407959 0.507338464260101318 1 -0 -0 -1
0.906749308109283447 0.948628008365631104 1 -0 -0 -1
0.930462121963500977 1.64197838306427002 1 -0 -0 -1
0.930652856826782227 1.10073304176330566 1 -0 -0 -1
0.967279374599456787 2.81256842613220215 1 -0 -0 -1
0.939050436019897461 0.452633202075958252 1 -0 -0 -1
0.937096536159515381 1.91450035572052002 1 -0 -0 -1
0.980257153511047363 3.36486649513244629 1 -0 -0 -1
0.926466166973114014 0.630435407161712646 1 -0 -0 -1
0.926706075668334961 1.04110074043273926 1 -0 -0 -1
0.957495629787445068 2.18530511856079102 1 -0 -0 -1
0.95832526683807373 1.35713088512420654 1 -0 -0 -1
0.90152055025100708 0.0508639328181743622 1 -0 -0 -1
0.95873868465423584 2.03967761993408203 1 -0 -0 -1
0.942958056926727295 1.4660409688949585 1 -0 -0 -1
0.916833043098449707 0.803545713424682617 1 -0 -0 -1
-0.333109468221664429 1.17972612380981445 1 -0 -0 -1
-0.506200432777404785 1.96759307384490967 1 -0 -0 -1
-0.0905813276767730713 0.343176752328872681 1 -0 -0 -1
-0.108624011278152466 0.293637186288833618 1 -0 -0 -1
-0.184953823685646057 0.733190000057220459 1 -0 -0 -1
-0.267548561096191406 0.955085217952728271 1 -0 -0 -1
-0.0549161061644554138 0.00107516697607934475 1 -0 -0 -1
-0.464636772871017456 1.79682457447052002 1 -0 -0 -1
-0.10617886483669281 0.39308592677116394 1 -0 -0 -1
-0.142059728503227234 0.427320986986160278 1 -0 -0 -1
-0.338143289089202881 1.26333296298980713 1 -0 -0 -1
-0.199740946292877197 0.596329152584075928 1 -0 -0 -1
-0.548735916614532471 2.17130160331726074 1 -0 -0 -1
-0.404277443885803223 1.47691035270690918 1 -0 -0 -1
-0.0557735450565814972 0.208095982670783997 1 -0 -0 -1
-0.795980334281921387 3.17684459686279297 1 -0 -0 -1
-0.151093617081642151 0.477478623390197754 1 -0 -0 -1
-0.445508033037185669 1.74915885925292969 1 -0 -0 -1
-0.133206143975257874 0.527124345302581787 1 -0 -0 -1
-0.0366389006376266479 0.0984910875558853149 1 -0 -0 -1
-0.762636959552764893 3.02729082107543945 1 -0 -0 -1
-0.0756479129195213318 0.161001741886138916 1 -0 -0 -1
-0.698310256004333496 2.79222369194030762 1 -0 -0 -1
-0.289996325969696045 1.06363451480865479 1 -0 -0 -1
-0.216802075505256653 0.771609067916870117 1 -0 -0 -1
-0.291150391101837158 1.11431419849395752 1 -0 -0 -1
-0.283982366323471069 1.00905692577362061 1 -0 -0 -1
-0.865870416164398193 3.44980692863464355 1 -0 -0 -1
-0.257268995046615601 0.909943222999572754 1 -0 -0 -1
-0.201499029994010925 0.679581761360168457 1 -0 -0 -1
-0.0953368991613388062 0.23691655695438385 1 -0 -0 -1
-0.416200906038284302 1.57959079742431641 1 -0 -0 -1
-0.135634243488311768 0.0619091279804706573 1 -0 0 -1
-0.51639479398727417 1.84062981605529785 1 -0 0 -1
-0.204512611031532288 0.548581063747406006 1 -0 0 -1
-0.685086667537689209 2.56751751899719238 1 -0 0 -1
-0.836033642292022705 3.27837157249450684 1 -0 0 -1
-0.608038544654846191 2.22731804847717285 1 -0 0 -1
-0.849900245666503906 3.33318018913269043 1 -0 0 -1
-0.389851540327072144 1.24002742767333984 1 -0 0 -1
-0.55609130859375 2.04920029640197754 1 -0 0 -1
-0.3772449791431427 1.31506657600402832 1 -0 0 -1
-0.309376150369644165 0.913415193557739258 1 -0 0 -1
-0.329686105251312256 1.01836574077606201 1 -0 0 -1
-0.612131834030151367 2.34194469451904297 1 -0 0 -1
-0.168883174657821655 0.365403980016708374 1 -0 0 -1
-0.697751343250274658 2.70085930824279785 1 -0 0 -1
-0.0840772911906242371 0.0552089214324951172 1 -0 0 -1
-0.433269381523132324 1.52910614013671875 1 -0 0 -1
-0.117151603102684021 0.0014170848298817873 1 -0 0 -1
-0.154391691088676453 0.214452072978019714 1 -0 0 -1
-0.48129233717918396 1.63858747482299805 1 -0 0 -1
-0.156390532851219177 0.281909376382827759 1 -0 0 -1
-0.51668858528137207 1.92290174961090088 1 -0 0 -1
-0.26194000244140625 0.701335728168487549 1 -0 0 -1
-0.566526949405670166 2.11997795104980469 1 -0 0 -1
-0.260846257209777832 0.83451545238494873 1 -0 0 -1
-0.350175648927688599 1.10781455039978027 1 -0 0 -1
-0.942207157611846924 3.73285245895385742 1 -0 0 -1
-0.418407320976257324 1.14174187183380127 1 -0 0 -1
-0.652482748031616211 2.29127097129821777 1 -0 0 -1
-0.183901384472846985 0.0691865980625152588 1 -0 0 -1
-0.659783005714416504 2.36018061637878418 1 -0 0 -1
-0.324232369661331177 0.730231523513793945 1 -0 0 -1
-0.259401530027389526 0.58899235725402832 1 -0 0 -1
-0.248823925852775574 0.527397096157073975 1 -0 0 -1
-0.213140428066253662 0.169281795620918274 1 -0 0 -1
-0.435592293739318848 1.37016558647155762 1 -0 0 -1
-0.913467705249786377 3.60015368461608887 1 -0 0 -1
-0.395200043916702271 1.02430224418640137 1 -0 0 -1
-0.349675983190536499 0.969178140163421631 1 -0 0 -1
-0.254150360822677612 0.418918073177337646 1 -0 0 -1
-0.776637732982635498 2.95019006729125977 1 -0 0 -1
-0.560218572616577148 1.95865464210510254 1 -0 0 -1
-0.188962548971176147 0.0161811076104640961 1 -0 0 -1
-0.676339328289031982 2.50987839698791504 1 -0 0 -1
-0.49199792742729187 1.54984700679779053 1 -0 0 -1
-0.596701502799987793 2.02614688873291016 1 -0 0 -1
-0.605240106582641602 2.15521049499511719 1 -0 0 -1
-0.570794820785522461 1.90677452087402344 1 -0 0 -1
-0.201631948351860046 0.311766207218170166 1 -0 0 -1
-0.243124082684516907 0.46731269359588623 1 -0 0 -1
-0.221974730491638184 0.353145748376846313 1 -0 0 -1
-0.387718170881271362 1.07703375816345215 1 -0 0 -1
-0.292406082153320312 0.665066003799438477 1 -0 0 -1
-0.160496383905410767 0.12294953316450119 1 -0 0 -1
-0.664122223854064941 2.46426844596862793 1 -0 0 -1
-0.51026618480682373 1.67592000961303711 1 -0 0 -1
-0.407419323921203613 1.19446945190429688 1 -0 0 -1
-0.529135704040527344 1.73298478126525879 1 -0 0 -1
-0.318657249212265015 0.860405862331390381 1 -0 0 -1
-0.449423521757125854 1.31919586658477783 1 -0 0 -1
-0.305434972047805786 0.803789019584655762 1 -0 0 -1
-0.460414201021194458 1.48765647411346436 1 -0 0 -1
-0.438146054744720459 1.42892444133758545 1 -0 0 -1
-0.514486312866210938 1.45279192924499512 1 -0 -0 -1
-0.273332864046096802 0.21050049364566803 1 -0 -0 -1
-0.378036290407180786 0.889739751815795898 1 -0 -0 -1
-0.350295007228851318 0.605613589286804199 1 -0 -0 -1
-0.572430193424224854 1.76557135581970215 1 -0 -0 -1
-0.45225861668586731 1.21888184547424316 1 -0 -0 -1
-0.545461416244506836 1.57845163345336914 1 -0 -0 -1
-0.27687343955039978 0.375650316476821899 1 -0 -0 -1
-0.438502699136734009 1.09043753147125244 1 -0 -0 -1
-0.734967052936553955 2.65385198593139648 1 -0 -0 -1
-0.684035062789916992 2.40629839897155762 1 -0 -0 -1
-0.956409811973571777 3.77848243713378906 1 -0 -0 -1
-0.609868466854095459 1.96086561679840088 1 -0 -0 -1
-0.775028645992279053 2.80981969833374023 1 -0 -0 -1
-0.843922674655914307 3.21250128746032715 1 -0 -0 -1
-0.423440009355545044 0.977083861827850342 1 -0 -0 -1
-0.251708537340164185 0.271779477596282959 1 -0 -0 -1
-0.578067481517791748 1.81891942024230957 1 -0 -0 -1
-0.358943909406661987 0.832709848880767822 1 -0 -0 -1
-0.353307783603668213 0.776526868343353271 1 -0 -0 -1
-0.294683396816253662 0.501589953899383545 1 -0 -0 -1
-0.242859601974487305 0.123864419758319855 1 -0 -0 -1
-0.643114268779754639 2.18739461898803711 1 -0 -0 -1
-0.494139224290847778 1.30295991897583008 1 -0 -0 -1
-0.312629282474517822 0.568777203559875488 1 -0 -0 -1
-0.247645661234855652 0.0745498389005661011 1 -0 -0 -1
-0.369656175374984741 0.713966071605682373 1 -0 -0 -1
-0.815636515617370605 3.05736041069030762 1 -0 -0 -1
-0.510287642478942871 1.40561115741729736 1 -0 -0 -1
-0.403353005647659302 0.849840283393859863 1 -0 -0 -1
-0.562078773975372314 1.68343508243560791 1 -0 -0 -1
-0.394656121730804443 0.493855208158493042 1 -0 0 -1
-0.483126550912857056 1.17888665199279785 1 -0 0 -1
-0.444423526525497437 0.880374789237976074 1 -0 0 -1
-0.613453090190887451 1.8507072925567627 1 -0 0 -1
-0.445077955722808838 0.927268087863922119 1 -0 0 -1
-0.348329633474349976 0.227951675653457642 1 -0 0 -1
-0.418579965829849243 0.7854958176612854 1 -0 0 -1
-0.637407422065734863 1.91710889339447021 1 -0 0 -1
-0.305252999067306519 0.169487252831459045 1 -0 0 -1
-0.489533811807632446 1.08019554615020752 1 -0 0 -1
-0.537769198417663574 1.51415383815765381 1 -0 0 -1
-0.656002521514892578 2.07071781158447266 1 -0 0 -1
-0.445763558149337769 1.02526223659515381 1 -0 0 -1
-0.355653613805770874 0.461857646703720093 1 -0 0 -1
-0.271030634641647339 0.0204054471105337143 1 -0 0 -1
-0.836932539939880371 3.10271930694580078 1 -0 0 -1
-0.772392511367797852 2.75117826461791992 1 -0 0 -1
-0.731539249420166016 2.49054193496704102 1 -0 0 -1
-0.317967772483825684 0.333027511835098267 1 -0 0 -1
-0.684094905853271484 2.23515796661376953 1 -0 0 -1
-0.402533739805221558 0.579883098602294922 1 -0 0 -1
-0.314309298992156982 0.100812867283821106 1 -0 0 -1
-0.359188824892044067 0.534910082817077637 1 -0 0 -1
-0.489547163248062134 1.24915385246276855 1 -0 0 -1
-0.533964693546295166 1.36328625679016113 1 -0 0 -1
-0.790623128414154053 2.86184310913085938 1 -0 0 -1
-0.348644614219665527 0.386099427938461304 1 -0 0 -1
-0.298669755458831787 0.251263409852981567 1 -0 0 -1
-0.373559266328811646 0.645324289798736572 1 -0 0 -1
-0.448071479797363281 0.711918175220489502 1 -0 0 -1
-0.597138643264770508 1.61616206169128418 1 -0 0 -1
-0.696560978889465332 2.18394732475280762 1 -0 0 -1
-0.672613620758056641 1.99496710300445557 1 -0 0 -1
-0.622045993804931641 1.65590298175811768 1 -0 0 -1
-0.729942858219146729 2.40637779235839844 1 -0 0 -1
-0.48398861289024353 0.979624688625335693 1 -0 0 -1
-0.418467491865158081 0.302739441394805908 1 -0 0 -1
-0.581618785858154297 1.34656977653503418 1 -0 0 -1
-0.445288568735122681 0.614337623119354248 1 -0 0 -1
-0.539408385753631592 1.20580613613128662 1 -0 0 -1
-0.682999193668365479 2.12897181510925293 1 -0 0 -1
-0.447472274303436279 0.547005295753479004 1 -0 0 -1
-0.386765748262405396 0.180855244398117065 1 -0 0 -1
-0.592754542827606201 1.51121044158935547 1 -0 0 -1
-0.588971972465515137 1.41842794418334961 1 -0 0 -1
-0.337872296571731567 0.0352512151002883911 1 -0 0 -1
-0.542596936225891113 1.30795490741729736 1 -0 0 -1
-0.757131695747375488 2.56178593635559082 1 -0 0 -1
-0.373781055212020874 0.284030705690383911 1 -0 0 -1
-0.508875012397766113 1.12393331527709961 1 -0 0 -1
-0.823766708374023438 2.89900636672973633 1 -0 0 -1
-0.711797952651977539 2.30562186241149902 1 -0 0 -1
-0.35687670111656189 0.0783452242612838745 1 -0 0 -1
-0.565574705600738525 1.46509313583374023 1 -0 0 -1
-0.383688241243362427 0.12258167564868927 1 -0 0 -1
-0.890576362609863281 3.31105208396911621 1 -0 0 -1
-0.618018805980682373 1.70416796207427979 1 -0 0 -1
-0.474353522062301636 0.814370453357696533 1 -0 0 -1
-0.400128215551376343 0.418555855751037598 1 -0 0 -1
-0.450895786285400391 0.127569243311882019 1 -0 -0 -1
-0.569736778736114502 1.2458425760269165 1 -0 -0 -1
-0.54108881950378418 1.05877518653869629 1 -0 -0 -1
-0.636260151863098145 1.55720949172973633 1 -0 -0 -1
-0.67681354284286499 1.81440269947052002 1 -0 -0 -1
-0.804420173168182373 2.69687485694885254 1 -0 -0 -1
-0.698182284832000732 1.92660713195800781 1 -0 -0 -1
-0.433537513017654419 0.370041370391845703 1 -0 -0 -1
-0.848954319953918457 3.01083803176879883 1 -0 -0 -1
-0.466198951005935669 0.491023361682891846 1 -0 -0 -1
-0.65088951587677002 1.74134135246276855 1 -0 -0 -1
-0.406517535448074341 0.0361282974481582642 1 -0 -0 -1
-0.563140213489532471 0.924246072769165039 1 -0 -0 -1
-0.633768022060394287 1.48430490493774414 1 -0 -0 -1
-0.499712437391281128 0.604703307151794434 1 -0 -0 -1
-0.526555955410003662 0.836999416351318359 1 -0 -0 -1
-0.570095658302307129 1.11319911479949951 1 -0 -0 -1
-0.467369973659515381 0.410059481859207153 1 -0 -0 -1
-0.49679902195930481 0.728225469589233398 1 -0 -0 -1
-0.697535514831542969 2.0398557186126709 1 -0 -0 -1
-0.598827183246612549 1.28867542743682861 1 -0 -0 -1
-0.518153607845306396 0.906626284122467041 1 -0 -0 -1
-0.756057024002075195 2.32819914817810059 1 -0 -0 -1
-0.417812526226043701 0.221261203289031982 1 -0 -0 -1
-0.732219517230987549 2.26030945777893066 1 -0 -0 -1
-0.826792240142822266 2.77514028549194336 1 -0 -0 -1
-0.49232858419418335 0.651384651660919189 1 -0 -0 -1
-0.549612879753112793 0.587566673755645752 1 -0 0 -1
-0.496658056974411011 0.301970452070236206 1 -0 0 -1
-0.702800631523132324 1.72791290283203125 1 -0 0 -1
-0.756294310092926025 2.19647455215454102 1 -0 0 -1
-0.502305448055267334 0.14099004864692688 1 -0 0 -1
-0.555056989192962646 0.702177107334136963 1 -0 0 -1
-0.93588334321975708 3.49976849555969238 1 -0 0 -1
-0.880585670471191406 3.14449834823608398 1 -0 0 -1
-0.607931971549987793 0.955995619297027588 1 -0 0 -1
-0.801407754421234131 2.48288369178771973 1 -0 0 -1
-0.795518398284912109 2.53128528594970703 1 -0 0 -1
-0.80831754207611084 2.6282954216003418 1 -0 0 -1
-0.720513045787811279 1.99651193618774414 1 -0 0 -1
-0.687169551849365234 1.63827812671661377 1 -0 0 -1
-0.71420055627822876 1.86863267421722412 1 -0 0 -1
-0.607222497463226318 0.904406189918518066 1 -0 0 -1
-0.84699702262878418 2.84960126876831055 1 -0 0 -1
-0.644197642803192139 1.4349132776260376 1 -0 0 -1
-0.711847186088562012 1.78278613090515137 1 -0 0 -1
-0.890127241611480713 3.20855927467346191 1 -0 0 -1
-0.679466545581817627 1.6874701976776123 1 -0 0 -1
-0.741917014122009277 2.05715537071228027 1 -0 0 -1
-0.519530415534973145 0.386233031749725342 1 -0 0 -1
-0.92259979248046875 3.38174080848693848 1 -0 0 -1
-0.559491932392120361 0.536863029003143311 1 -0 0 -1
-0.678610265254974365 1.58576858043670654 1 -0 0 -1
-0.534529447555541992 0.438126623630523682 1 -0 0 -1
-0.607716739177703857 1.04404664039611816 1 -0 0 -1
-0.625474691390991211 1.10953569412231445 1 -0 0 -1
-0.521902382373809814 0.258785873651504517 1 -0 0 -1
-0.781348049640655518 2.27767419815063477 1 -0 0 -1
-0.487906754016876221 0.350496411323547363 1 -0 0 -1
-0.465901941061019897 0.054005991667509079 1 -0 0 -1
-0.606729447841644287 1.15130054950714111 1 -0 0 -1
-0.534589111804962158 0.496004879474639893 1 -0 0 -1
-0.561453819274902344 0.76359713077545166 1 -0 0 -1
-0.475866824388504028 0.25284084677696228 1 -0 0 -1
-0.791508972644805908 2.4092411994934082 1 -0 0 -1
-0.646928191184997559 1.26791632175445557 1 -0 0 -1
-0.772458672523498535 1.99227118492126465 1 -0 0 -1
-0.598084807395935059 0.666063070297241211 1 -0 0 -1
-0.77180945873260498 2.1319422721862793 1 -0 0 -1
-0.694683313369750977 1.28287410736083984 1 -0 0 -1
-0.851201236248016357 2.71528458595275879 1 -0 0 -1
-0.548881649971008301 0.0286707058548927307 1 -0 0 -1
-0.764835596084594727 1.90017795562744141 1 -0 0 -1
-0.621249020099639893 0.552994310855865479 1 -0 0 -1
-0.740234434604644775 1.82298016548156738 1 -0 0 -1
-0.62686622142791748 0.816928088665008545 1 -0 0 -1
-0.642624735832214355 0.869864463806152344 1 -0 0 -1
-0.549177229404449463 0.206348299980163574 1 -0 0 -1
-0.664975345134735107 1.02450966835021973 1 -0 0 -1
-0.667343735694885254 1.32223093509674072 1 -0 0 -1
-0.985562741756439209 3.873443603515625 1 -0 0 -1
-0.754347503185272217 1.94777750968933105 1 -0 0 -1
-0.871189534664154053 2.92575573921203613 1 -0 0 -1
-0.682591855525970459 1.38212788105010986 1 -0 0 -1
-0.614230573177337646 0.764625728130340576 1 -0 0 -1
-0.894814372062683105 3.10017848014831543 1 -0 0 -1
-0.552253305912017822 0.119329988956451416 1 -0 0 -1
-0.662451088428497314 1.19445991516113281 1 -0 0 -1
-0.545917630195617676 0.309160500764846802 1 -0 0 -1
-0.696177303791046143 1.48859524726867676 1 -0 0 -1
-0.716886460781097412 1.05030012130737305 1 -0 -0 -1
-0.955556988716125488 3.54460549354553223 1 -0 -0 -1
-0.959259152412414551 3.62734699249267578 1 -0 -0 -1
-0.745294451713562012 1.32158970832824707 1 -0 -0 -1
-0.825026333332061768 2.25883078575134277 1 -0 -0 -1
-0.635729849338531494 0.625090837478637695 1 -0 -0 -1
-0.6468849778175354 0.703500449657440186 1 -0 -0 -1
-0.819515585899353027 2.12556767463684082 1 -0 -0 -1
-0.830825865268707275 2.34226870536804199 1 -0 -0 -1
-0.730324983596801758 1.42343497276306152 1 -0 -0 -1
-0.595620691776275635 0.185364127159118652 1 -0 -0 -1
-0.610525429248809814 0.0212758798152208328 1 -0 -0 -1
-0.680532872676849365 0.81111520528793335 1 -0 -0 -1
-0.633318305015563965 0.0966796278953552246 1 -0 -0 -1
-0.610235452651977539 0.387237191200256348 1 -0 -0 -1
-0.736792385578155518 1.54317617416381836 1 -0 -0 -1
-0.601805925369262695 0.312223881483078003 1 -0 -0 -1
-0.682823240756988525 1.08062827587127686 1 -0 -0 -1
-0.60500103235244751 0.236237108707427979 1 -0 -0 -1
-0.583227694034576416 0.0745900273323059082 1 -0 -0 -1
-0.742813289165496826 1.49462330341339111 1 -0 -0 -1
-0.945061981678009033 3.42834758758544922 1 -0 -0 -1
-0.741371035575866699 1.59640669822692871 1 -0 -0 -1
-0.778698086738586426 1.85542619228363037 1 -0 -0 -1
-0.728902637958526611 1.21204793453216553 1 -0 -0 -1
-0.682960033416748047 0.673330426216125488 1 -0 -0 -1
-0.755150258541107178 1.74879920482635498 1 -0 -0 -1
-0.642329692840576172 0.434167087078094482 1 -0 -0 -1
-0.673262953758239746 0.905652344226837158 1 -0 -0 -1
-0.652004539966583252 0.294610112905502319 1 -0 -0 -1
-0.719287753105163574 1.16126453876495361 1 -0 -0 -1
-0.79617232084274292 2.07804751396179199 1 -0 -0 -1
-0.728510141372680664 1.10967826843261719 1 -0 -0 -1
-0.620194554328918457 0.499120146036148071 1 -0 -0 -1
-0.824641823768615723 2.18263578414916992 1 -0 -0 -1
-0.897804796695709229 3.02498531341552734 1 -0 -0 -1
-0.711574256420135498 0.711685776710510254 1 -0 0 -1
-0.693362951278686523 0.168171748518943787 1 -0 0 -1
-0.800498485565185547 1.80732214450836182 1 -0 0 -1
-0.860578715801239014 2.51177000999450684 1 -0 0 -1
-0.680432915687561035 0.0144635951146483421 1 -0 0 -1
-0.706208884716033936 0.451098829507827759 1 -0 0 -1
-0.722191870212554932 0.881951510906219482 1 -0 0 -1
-0.900452971458435059 2.7797393798828125 1 -0 0 -1
-0.79470527172088623 1.61268985271453857 1 -0 0 -1
-0.734784603118896484 0.83715665340423584 1 -0 0 -1
-0.675047218799591064 0.498849362134933472 1 -0 0 -1
-0.684404253959655762 0.591064095497131348 1 -0 0 -1
-0.716697394847869873 0.628544390201568604 1 -0 0 -1
-0.74628216028213501 1.27293181419372559 1 -0 0 -1
-0.795567989349365234 1.55026423931121826 1 -0 0 -1
-0.824389100074768066 1.91579544544219971 1 -0 0 -1
-0.760195612907409668 1.38232433795928955 1 -0 0 -1
-0.7259979248046875 0.975814402103424072 1 -0 0 -1
-0.78398442268371582 1.66268241405487061 1 -0 0 -1
-0.692829668521881104 0.0965378433465957642 1 -0 0 -1
-0.852778971195220947 2.41742801666259766 1 -0 0 -1
-0.64942622184753418 0.152567446231842041 1 -0 0 -1
-0.817974209785461426 1.71195566654205322 1 -0 0 -1
-0.880501091480255127 2.64208555221557617 1 -0 0 -1
-0.687228858470916748 0.395935684442520142 1 -0 0 -1
-0.84200209379196167 2.00839996337890625 1 -0 0 -1
-0.696676433086395264 0.26150810718536377 1 -0 0 -1
-0.900449097156524658 2.72840285301208496 1 -0 0 -1
-0.782932698726654053 1.23059737682342529 1 -0 0 -1
-0.917180478572845459 2.96780014038085938 1 -0 0 -1
-0.661469817161560059 0.350679874420166016 1 -0 0 -1
-0.704203367233276367 0.764161884784698486 1 -0 0 -1
-0.718522250652313232 0.525010943412780762 1 -0 0 -1
-0.834407329559326172 1.37158966064453125 1 -0 0 -1
-0.769254565238952637 0.538132607936859131 1 -0 0 -1
-0.848900854587554932 1.615395188331604 1 -0 0 -1
-0.94910883903503418 3.2528836727142334 1 -0 0 -1
-0.807295262813568115 1.3169867992401123 1 -0 0 -1
-0.977357089519500732 3.67173433303833008 1 -0 0 -1
-0.876870870590209961 2.28738164901733398 1 -0 0 -1
-0.897652328014373779 2.3797154426574707 1 -0 0 -1
-0.798731207847595215 1.41808617115020752 1 -0 0 -1
-0.913815677165985107 2.68063735961914062 1 -0 0 -1
-0.803724884986877441 1.17221963405609131 1 -0 0 -1
-0.85865628719329834 1.84276461601257324 1 -0 0 -1
-0.937373876571655273 3.05449938774108887 1 -0 0 -1
-0.761672735214233398 0.930357694625854492 1 -0 0 -1
-0.776756048202514648 0.628670752048492432 1 -0 0 -1
-0.79871290922164917 0.85986328125 1 -0 0 -1
-0.772845685482025146 1.04769706726074219 1 -0 0 -1
-0.922614157199859619 2.8967587947845459 1 -0 0 -1
-0.794274508953094482 1.00105082988739014 1 -0 0 -1
-0.863838255405426025 2.08300971984863281 1 -0 0 -1
-0.725949704647064209 0.0418697930872440338 1 -0 0 -1
-0.747310876846313477 0.11736501008272171 1 -0 0 -1
-0.896289646625518799 2.45825576782226562 1 -0 0 -1
-0.866111874580383301 2.23580408096313477 1 -0 0 -1
-0.816075265407562256 1.49492144584655762 1 -0 0 -1
-0.740962743759155273 0.358536362648010254 1 -0 0 -1
-0.765656352043151855 0.287074625492095947 1 -0 0 -1
-0.857964515686035156 1.78849995136260986 1 -0 0 -1
-0.742411971092224121 0.198375016450881958 1 -0 0 -1
-0.894842386245727539 2.59648036956787109 1 -0 0 -1
-0.815075695514678955 1.07383501529693604 1 -0 0 -1
-0.776518642902374268 0.487693458795547485 1 -0 0 -1
-0.772144138813018799 0.79944300651550293 1 -0 0 -1
-0.754833996295928955 0.587400496006011963 1 -0 0 -1
-0.955210447311401367 0.865676462650299072 1 -0 -0 -1
-0.999610245227813721 3.58046531677246094 1 -0 -0 -1
-0.999951779842376709 3.51368165016174316 1 -0 -0 -1
-0.986900508403778076 1.65110945701599121 1 -0 -0 -1
-0.985487699508666992 2.76131629943847656 1 -0 -0 -1
-0.982792854309082031 1.40969479084014893 1 -0 -0 -1
-0.997970104217529297 2.47371697425842285 1 -0 -0 -1
-0.991167247295379639 1.36116123199462891 1 -0 -0 -1
-0.984896838665008545 0.12078094482421875 1 -0 -0 -1
-0.997498273849487305 2.15161871910095215 1 -0 -0 -1
-0.99391549825668335 2.68083477020263672 1 -0 -0 -1
-0.958402037620544434 1.07997715473175049 1 -0 -0 -1
-0.999844908714294434 2.09592175483703613 1 -0 -0 -1
-0.995136260986328125 0.406009256839752197 1 -0 -0 -1
-0.996949195861816406 1.78879928588867188 1 -0 -0 -1
-0.960101306438446045 0.346689283847808838 1 -0 -0 -1
-0.961660444736480713 0.461456328630447388 1 -0 -0 -1
-0.990067780017852783 1.93899548053741455 1 -0 -0 -1
-0.9623451828956604 1.31099236011505127 1 -0 -0 -1
-0.963774800300598145 0.810629308223724365 1 -0 -0 -1
-0.94551694393157959 0.0928902626037597656 1 -0 -0 -1
-0.99889296293258667 2.53877544403076172 1 -0 -0 -1
-0.996393740177154541 1.46371674537658691 1 -0 -0 -1
-0.990762054920196533 2.89114046096801758 1 -0 -0 -1
-0.958359003067016602 0.577767789363861084 1 -0 -0 -1
-0.967653810977935791 0.993120312690734863 1 -0 -0 -1
-0.971928000450134277 1.16235101222991943 1 -0 -0 -1
-0.9874764084815979 0.0252554845064878464 1 -0 -0 -1
-0.950225293636322021 0.634809553623199463 1 -0 -0 -1
-0.952570140361785889 0.723017752170562744 1 -0 -0 -1
-0.975331366062164307 0.946354389190673828 1 -0 -0 -1
-0.998104870319366455 2.96865653991699219 1 -0 -0 -1
-0.979148805141448975 0.246083229780197144 1 -0 -0 -1
-0.997154653072357178 1.56643497943878174 1 -0 -0 -1
-0.990839064121246338 0.504402518272399902 1 -0 -0 -1
-0.996839344501495361 2.61627411842346191 1 -0 -0 -1
-0.926604211330413818 0.931088924407958984 1 -0 0 -1
-0.949060678482055664 2.17350029945373535 1 -0 0 -1
-0.937274575233459473 1.63417315483093262 1 -0 0 -1
-0.930068433284759521 0.276917636394500732 1 -0 0 -1
-0.932899534702301025 0.503416836261749268 1 -0 0 -1
-0.885299205780029297 0.32064482569694519 1 -0 0 -1
-0.983307957649230957 3.0815584659576416 1 -0 0 -1
-0.901765644550323486 0.664550960063934326 1 -0 0 -1
-0.918693482875823975 0.395785152912139893 1 -0 0 -1
-0.929458200931549072 0.140089169144630432 1 -0 0 -1
-0.909259617328643799 0.543481111526489258 1 -0 0 -1
-0.888926148414611816 0.223518818616867065 1 -0 0 -1
-0.980158448219299316 3.13135218620300293 1 -0 0 -1
-0.897819101810455322 0.454649895429611206 1 -0 0 -1
-0.95401465892791748 1.99577569961547852 1 -0 0 -1
-0.959082424640655518 2.23673892021179199 1 -0 0 -1
-0.927314102649688721 1.02399981021881104 1 -0 0 -1
-0.890776216983795166 0.105001367628574371 1 -0 0 -1
-0.927630484104156494 0.0361115932464599609 1 -0 0 -1
-0.944284796714782715 1.535575270652771 1 -0 0 -1
-0.953371524810791016 2.06021928787231445 1 -0 0 -1
-0.937905192375183105 0.186522632837295532 1 -0 0 -1
-0.941905498504638672 2.11333918571472168 1 -0 0 -1
-0.926669418811798096 1.23314714431762695 1 -0 0 -1
-0.936948120594024658 1.92591655254364014 1 -0 0 -1
-0.927644610404968262 0.76612168550491333 1 -0 0 -1
-0.939968764781951904 1.35370016098022461 1 -0 0 -1
-0.946399331092834473 1.7285531759262085 1 -0 0 -1
-0.897019386291503906 0.726952672004699707 1 -0 0 -1
-0.898189663887023926 1.13485109806060791 1 -0 0 -1
-0.887441694736480713 1.1947484016418457 1 -0 0 -1
-0.905853629112243652 1.78287220001220703 1 -0 0 -1
-0.920299947261810303 1.83453202247619629 1 -0 0 -1
-0.910556495189666748 1.69259655475616455 1 -0 0 -1
-0.928893327713012695 2.41560745239257812 1 -0 0 -1
-0.904254794120788574 1.42764806747436523 1 -0 0 -1
-0.850140273571014404 0.189177036285400391 1 -0 0 -1
-0.871633410453796387 0.918845772743225098 1 -0 0 -1
-0.87613910436630249 1.08238899707794189 1 -0 0 -1
-0.825788736343383789 0.283220767974853516 1 -0 0 -1
-0.893626809120178223 0.815865814685821533 1 -0 0 -1
-0.854316473007202148 0.774249017238616943 1 -0 0 -1
-0.856330573558807373 0.526216983795166016 1 -0 0 -1
-0.963282525539398193 2.93285536766052246 1 -0 0 -1
-0.97895348072052002 3.47177648544311523 1 -0 0 -1
-0.952020406723022461 2.70883393287658691 1 -0 0 -1
-0.84887617826461792 0.72459644079208374 1 -0 0 -1
-0.941736996173858643 2.35895323753356934 1 -0 0 -1
-0.869901180267333984 1.00649654865264893 1 -0 0 -1
-0.841604173183441162 0.0724203139543533325 1 -0 0 -1
-0.85043489933013916 0.469461709260940552 1 -0 0 -1
-0.942638158798217773 2.55065536499023438 1 -0 0 -1
-0.906594157218933105 1.59452366828918457 1 -0 0 -1
-0.838486790657043457 0.378260105848312378 1 -0 0 -1
-0.950371205806732178 2.6353449821472168 1 -0 0 -1
-0.900176465511322021 0.881112873554229736 1 -0 0 -1
-0.800887882709503174 0.698243975639343262 1 -0 -0 -1
-0.786569714546203613 0.428352326154708862 1 -0 -0 -1
-0.893267393112182617 2.17511868476867676 1 -0 -0 -1
-0.868593752384185791 1.72510755062103271 1 -0 -0 -1
-0.825949430465698242 0.597147941589355469 1 -0 -0 -1
-0.827139317989349365 0.330003947019577026 1 -0 -0 -1
-0.823936879634857178 0.646445155143737793 1 -0 -0 -1
-0.79811626672744751 0.761864185333251953 1 -0 -0 -1
-0.815898239612579346 0.146222308278083801 1 -0 -0 -1
-0.800846278667449951 0.196821197867393494 1 -0 -0 -1
-0.931582391262054443 2.81424689292907715 1 -0 -0 -1
-0.919033229351043701 2.31569433212280273 1 -0 -0 -1
-0.87926638126373291 1.54269778728485107 1 -0 -0 -1
-0.853767514228820801 1.30262911319732666 1 -0 -0 -1
-0.893999874591827393 2.02646946907043457 1 -0 -0 -1
-0.954489707946777344 3.17919707298278809 1 -0 -0 -1
-0.893866956233978271 1.94109797477722168 1 -0 -0 -1
-0.795359551906585693 0.00622620340436697006 1 -0 -0 -1
-0.838522851467132568 1.13450908660888672 1 -0 -0 -1
-0.863727748394012451 1.24865949153900146 1 -0 -0 -1
-0.854874908924102783 1.67780768871307373 1 -0 -0 -1
-0.867100000381469727 1.49877190589904785 1 -0 -0 -1
-0.783813714981079102 0.0617939494550228119 1 -0 -0 -1
-0.810210764408111572 0.928933441638946533 1 -0 -0 -1
-0.84346383810043335 0.876269876956939697 1 -0 -0 -1
-0.835659384727478027 0.822182953357696533 1 -0 -0 -1
-0.858025074005126953 1.42390954494476318 1 -0 -0 -1
-0.894029796123504639 1.88590657711029053 1 -0 -0 -1
0.970014333724975586 0 0.96896970272064209 -0 1 -0
0.990224778652191162 0 0.911347389221191406 -0 1 -0
0.90652167797088623 0 0.940848112106323242 -0 1 -0
0.960611939430236816 0 0.86326366662979126 -0 1 -0
0.908263444900512695 0 0.864379584789276123 -0 1 -0
0.85906219482421875 0 0.980593860149383545 -0 1 -0
0.844196975231170654 0 0.867233872413635254 -0 1 -0
0.956939399242401123 0 0.794777035713195801 -0 1 -0
0.88292849063873291 0 0.778023123741149902 -0 1 -0
0.79154592752456665 0 0.843885958194732666 -0 1 -0
0.798661708831787109 0 0.912858307361602783 -0 1 -0
0.780023694038391113 0 0.799029350280761719 -0 1 -0
0.926638007164001465 0 0.721032023429870605 -0 1 -0
0.847383022308349609 0 0.701156497001647949 -0 1 -0
0.811783254146575928 0 0.733404040336608887 -0 1 -0
0.712487280368804932 0 0.849256515502929688 -0 1 -0
0.740556418895721436 0 0.765158951282501221 -0 1 -0
0.821471869945526123 0 0.651238381862640381 -0 1 -0
0.787712395191192627 0 0.683286011219024658 -0 1 -0
0.696380674839019775 0 0.74014747142791748 -0 1 -0
0.727201223373413086 0 0.669089734554290771 -0 1 -0
0.680322587490081787 0 0.810552716255187988 -0 1 -0
0.643726468086242676 0 0.71078568696975708 -0 1 -0
0.705060720443725586 0 0.627451956272125244 -0 1 -0
0.737308323383331299 0 0.591955125331878662 -0 1 -0
0.801919698715209961 0 0.581087350845336914 -0 1 -0
0.627883315086364746 0 0.660972177982330322 -0 1 -0
0.591926336288452148 0 0.699268043041229248 -0 1 -0
0.608407735824584961 0 0.747846245765686035 -0 1 -0
0.655930995941162109 0 0.590899348258972168 -0 1 -0
0.5839119553565979 0 0.642280936241149902 -0 1 -0
0.696709156036376953 0 0.540638983249664307 -0 1 -0
0.755239725112915039 0 0.488747954368591309 -0 1 -0
0.808914721012115479 0 0.454802662134170532 -0 1 -0
0.716866910457611084 0 0.444509655237197876 -0 1 -0
0.79907757043838501 0 0.386932909488677979 -0 1 -0
0.734504818916320801 0 0.399627029895782471 -0 1 -0
0.853291511535644531 0 0.378172695636749268 -0 1 -0
0.848006904125213623 0 0.47928348183631897 -0 1 -0
0.790146172046661377 0 0.522400021553039551 -0 1 -0
0.910232663154602051 0 0.379472196102142334 -0 1 -0
0.896451354026794434 0 0.422471016645431519 -0 1 -0
0.884173393249511719 0 0.315360158681869507 -0 1 -0
0.944913566112518311 0 0.332083642482757568 -0 1 -0
0.953220546245574951 0 0.421272486448287964 -0 1 -0
0.992907822132110596 0 0.370361268520355225 -0 1 -0
0.992441117763519287 0 0.482940405607223511 -0 1 -0
0.893729209899902344 0 0.502156436443328857 -0 1 -0
0.95737379789352417 0 0.523032188415527344 -0 1 -0
0.897574365139007568 0 0.556800425052642822 -0 1 -0
0.975093364715576172 0 0.56599503755569458 -0 1 -0
0.94225698709487915 0 0.618095159530639648 -0 1 -0
0.848397493362426758 0 0.608251631259918213 -0 1 -0
0.849362492561340332 0 0.543871283531188965 -0 1 -0
0.898479044437408447 0 0.682247340679168701 -0 1 -0
0.969003021717071533 0 0.697070896625518799 -0 1 -0
0.94628608226776123 0 0.260802417993545532 -0 1 -0
0.902713596820831299 0 0.231226503849029541 -0 1 -0
0.964997649192810059 0 0.130868628621101379 -0 1 -0
0.855635643005371094 0 0.271179825067520142 -0 1 -0
0.837220191955566406 0 0.326248228549957275 -0 1 -0
0.779589831829071045 0 0.341983646154403687 -0 1 -0
0.788590550422668457 0 0.289585649967193604 -0 1 -0
0.836657524108886719 0 0.222709789872169495 -0 1 -0
0.892874956130981445 0 0.151714354753494263 -0 1 -0
0.83329540491104126 0 0.136450842022895813 -0 1 -0
0.856857001781463623 0 0.0958192870020866394 -0 1 -0
0.913019835948944092 0 0.104372650384902954 -0 1 -0
0.884180128574371338 0 0.0528464391827583313 -0 1 -0
0.937089443206787109 0 0.0380176864564418793 -0 1 -0
0.833168089389801025 0 0.0482447780668735504 -0 1 -0
0.999940752983093262 0 0.0365153849124908447 -0 1 -0
0.929108083248138428 0 -0.0404997877776622772 -0 1 -0
0.87763512134552002 0 -0.0324134677648544312 -0 1 -0
0.996631085872650146 0 -0.0650967955589294434 -0 1 -0
0.886743903160095215 0 -0.084440670907497406 -0 1 -0
0.95239412784576416 0 -0.1283283531665802 -0 1 -0
0.895906329154968262 0 -0.145392283797264099 -0 1 -0
0.822321891784667969 0 -0.114229030907154083 -0 1 -0
0.928299427032470703 0 -0.219065383076667786 -0 1 -0
0.855611085891723633 0 -0.186720237135887146 -0 1 -0
0.981363415718078613 0 -0.304623574018478394 -0 1 -0
0.817225456237792969 0 -0.244168177247047424 -0 1 -0
0.917678534984588623 0 -0.296234548091888428 -0 1 -0
0.864525318145751953 0 -0.26728665828704834 -0 1 -0
0.94151991605758667 0 -0.346342116594314575 -0 1 -0
0.807938992977142334 0 -0.304642587900161743 -0 1 -0
0.859827518463134766 0 -0.381690263748168945 -0 1 -0
0.911702334880828857 0 -0.383412301540374756 -0 1 -0
0.946077525615692139 0 -0.422954529523849487 -0 1 -0
0.973430514335632324 0 -0.471841663122177124 -0 1 -0
0.84506601095199585 0 -0.430135935544967651 -0 1 -0
0.886454284191131592 0 -0.465366840362548828 -0 1 -0
0.807241916656494141 0 -0.402591943740844727 -0 1 -0
0.791634440422058105 0 -0.456062108278274536 -0 1 -0
0.905438721179962158 0 -0.512109994888305664 -0 1 -0
0.938744604587554932 0 -0.564594924449920654 -0 1 -0
0.880564093589782715 0 -0.565910637378692627 -0 1 -0
0.983946561813354492 0 -0.584678173065185547 -0 1 -0
0.807934761047363281 0 -0.49817541241645813 -0 1 -0
0.764346718788146973 0 -0.552394270896911621 -0 1 -0
0.815184712409973145 0 -0.579205930233001709 -0 1 -0
0.911125659942626953 0 -0.668662488460540771 -0 1 -0
0.832724273204803467 0 -0.634900867938995361 -0 1 -0
0.885294556617736816 0 -0.625529348850250244 -0 1 -0
0.938534736633300781 0 -0.626614749431610107 -0 1 -0
0.994183659553527832 0 -0.639515101909637451 -0 1 -0
0.925408422946929932 0 -0.72505342960357666 -0 1 -0
0.964792549610137939 0 -0.690666258335113525 -0 1 -0
0.820311188697814941 0 -0.69270169734954834 -0 1 -0
0.788461387157440186 0 -0.651939332485198975 -0 1 -0
0.880882441997528076 0 -0.762360692024230957 -0 1 -0
0.947811603546142578 0 -0.81957477331161499 -0 1 -0
0.832011520862579346 0 -0.810708820819854736 -0 1 -0
0.880340516567230225 0 -0.837642192840576172 -0 1 -0
0.788793385028839111 0 -0.745960593223571777 -0 1 -0
0.752187490463256836 0 -0.787562966346740723 -0 1 -0
0.832771837711334229 0 -0.861717164516448975 -0 1 -0
0.777971386909484863 0 -0.830306410789489746 -0 1 -0
0.901141047477722168 0 -0.90306389331817627 -0 1 -0
0.94690173864364624 0 -0.888407647609710693 -0 1 -0
0.988757073879241943 0 -0.946268141269683838 -0 1 -0
0.877623617649078369 0 -0.998777031898498535 -0 1 -0
0.926589667797088623 0 -0.996355831623077393 -0 1 -0
0.82788616418838501 0 -0.946468114852905273 -0 1 -0
0.761697888374328613 0 -0.876238584518432617 -0 1 -0
0.813504636287689209 0 -0.998453378677368164 -0 1 -0
0.713948667049407959 0 -0.860072135925292969 -0 1 -0
0.729236423969268799 0 -0.930091619491577148 -0 1 -0
0.745245218276977539 0 -0.982925176620483398 -0 1 -0
0.654148578643798828 0 -0.898544847965240479 -0 1 -0
0.652210414409637451 0 -0.814753830432891846 -0 1 -0
0.697845041751861572 0 -0.964824497699737549 -0 1 -0
0.595824718475341797 0 -0.906304836273193359 -0 1 -0
0.606356263160705566 0 -0.854844808578491211 -0 1 -0
0.60560983419418335 0 -0.786644995212554932 -0 1 -0
0.516316413879394531 0 -0.772364020347595215 -0 1 -0
0.524997889995574951 0 -0.829173803329467773 -0 1 -0
0.553141415119171143 0 -0.891159415245056152 -0 1 -0
0.466175049543380737 0 -0.83297431468963623 -0 1 -0
0.464265912771224976 0 -0.73540806770324707 -0 1 -0
0.506255567073822021 0 -0.713586390018463135 -0 1 -0
0.553586781024932861 0 -0.744703114032745361 -0 1 -0
0.394757270812988281 0 -0.78062206506729126 -0 1 -0
0.520861506462097168 0 -0.937493562698364258 -0 1 -0
0.4395294189453125 0 -0.877357423305511475 -0 1 -0
0.379615694284439087 0 -0.859067380428314209 -0 1 -0
0.341358214616775513 0 -0.753313779830932617 -0 1 -0
0.35021635890007019 0 -0.818701565265655518 -0 1 -0
0.404571086168289185 0 -0.916620790958404541 -0 1 -0
0.329390138387680054 0 -0.878845334053039551 -0 1 -0
0.463929504156112671 0 -0.955104291439056396 -0 1 -0
0.330509841442108154 0 -0.952861547470092773 -0 1 -0
0.252456694841384888 0 -0.823282718658447266 -0 1 -0
0.30742606520652771 0 -0.792487621307373047 -0 1 -0
0.200837075710296631 0 -0.818196356296539307 -0 1 -0
0.260062426328659058 0 -0.917120814323425293 -0 1 -0
0.238805189728736877 0 -0.87107926607131958 -0 1 -0
0.2877483069896698 0 -0.996796548366546631 -0 1 -0
0.224427565932273865 0 -0.954038381576538086 -0 1 -0
0.135280385613441467 0 -0.823095798492431641 -0 1 -0
0.15913061797618866 0 -0.883121311664581299 -0 1 -0
0.174137994647026062 0 -0.936124265193939209 -0 1 -0
0.110883049666881561 0 -0.869525909423828125 -0 1 -0
0.118338480591773987 0 -0.916563451290130615 -0 1 -0
0.0657722055912017822 0 -0.931863307952880859 -0 1 -0
0.169584542512893677 0 -0.985165059566497803 -0 1 -0
0.119846560060977936 0 -0.994345724582672119 -0 1 -0
0.0511684790253639221 0 -0.880450546741485596 -0 1 -0
0.0145146045833826065 0 -0.925135254859924316 -0 1 -0
0.0725695714354515076 0 -0.97848665714263916 -0 1 -0
-0.00431142374873161316 0 -0.88106614351272583 -0 1 -0
-0.0356150418519973755 0 -0.930197715759277344 -0 1 -0
0.0250487476587295532 0 -0.994056165218353271 -0 1 -0
-0.0978909134864807129 0 -0.8948630690574646 -0 1 -0
-0.0872649773955345154 0 -0.845537483692169189 -0 1 -0
-0.0698882266879081726 0 -0.980487525463104248 -0 1 -0
-0.170774325728416443 0 -0.864703059196472168 -0 1 -0
-0.142491310834884644 0 -0.814133405685424805 -0 1 -0
-0.182339474558830261 0 -0.908479988574981689 -0 1 -0
-0.236897602677345276 0 -0.832241833209991455 -0 1 -0
-0.159614920616149902 0 -0.97412109375 -0 1 -0
-0.222675248980522156 0 -0.951186299324035645 -0 1 -0
-0.286732524633407593 0 -0.856177091598510742 -0 1 -0
-0.267180383205413818 0 -0.918130040168762207 -0 1 -0
-0.300755858421325684 0 -0.794900059700012207 -0 1 -0
-0.348280340433120728 0 -0.785658597946166992 -0 1 -0
-0.341943413019180298 0 -0.851480782032012939 -0 1 -0
-0.42940211296081543 0 -0.811474025249481201 -0 1 -0
-0.43060767650604248 0 -0.750082731246948242 -0 1 -0
-0.393940389156341553 0 -0.846513986587524414 -0 1 -0
-0.490199267864227295 0 -0.702168643474578857 -0 1 -0
-0.467527836561203003 0 -0.778346240520477295 -0 1 -0
-0.445567727088928223 0 -0.862368881702423096 -0 1 -0
-0.329671561717987061 0 -0.936515331268310547 -0 1 -0
-0.493040114641189575 0 -0.866812527179718018 -0 1 -0
-0.54093557596206665 0 -0.768533110618591309 -0 1 -0
-0.540547966957092285 0 -0.704289853572845459 -0 1 -0
-0.58757859468460083 0 -0.690237462520599365 -0 1 -0
-0.603367447853088379 0 -0.771162927150726318 -0 1 -0
-0.558669388294219971 0 -0.872095823287963867 -0 1 -0
-0.583002209663391113 0 -0.82636183500289917 -0 1 -0
-0.652698338031768799 0 -0.746097564697265625 -0 1 -0
-0.628102958202362061 0 -0.662927329540252686 -0 1 -0
-0.744970738887786865 0 -0.660439968109130859 -0 1 -0
-0.691133856773376465 0 -0.702780842781066895 -0 1 -0
-0.649338304996490479 0 -0.799429118633270264 -0 1 -0
-0.703679978847503662 0 -0.767989873886108398 -0 1 -0
-0.794825196266174316 0 -0.653631269931793213 -0 1 -0
-0.766902744770050049 0 -0.706968426704406738 -0 1 -0
-0.759090423583984375 0 -0.600800752639770508 -0 1 -0
-0.851743817329406738 0 -0.619455635547637939 -0 1 -0
-0.823162317276000977 0 -0.701266765594482422 -0 1 -0
-0.936125457286834717 0 -0.617502272129058838 -0 1 -0
-0.907685935497283936 0 -0.565747082233428955 -0 1 -0
-0.906766057014465332 0 -0.51786041259765625 -0 1 -0
-0.986774623394012451 0 -0.570585012435913086 -0 1 -0
-0.908992528915405273 0 -0.665257573127746582 -0 1 -0
-0.911530494689941406 0 -0.737342298030853271 -0 1 -0
-0.948375225067138672 0 -0.693073570728302002 -0 1 -0
-0.958343088626861572 0 -0.750894248485565186 -0 1 -0
-0.857913017272949219 0 -0.785276591777801514 -0 1 -0
-0.846028685569763184 0 -0.842000007629394531 -0 1 -0
-0.899357318878173828 0 -0.825968444347381592 -0 1 -0
-0.951930582523345947 0 -0.813243508338928223 -0 1 -0
-0.841045737266540527 0 -0.896032154560089111 -0 1 -0
-0.765851199626922607 0 -0.879466056823730469 -0 1 -0
-0.820136964321136475 0 -0.948620736598968506 -0 1 -0
-0.768353700637817383 0 -0.949091255664825439 -0 1 -0
-0.926104307174682617 0 -0.905740499496459961 -0 1 -0
-0.846296608448028564 0 -0.997938096523284912 -0 1 -0
-0.92503589391708374 0 -0.96133953332901001 -0 1 -0
-0.993056714534759521 0 -0.878424644470214844 -0 1 -0
-0.972304344177246094 0 -0.943625509738922119 -0 1 -0
-0.965617716312408447 0 -0.993217349052429199 -0 1 -0
-0.717273056507110596 0 -0.936438560485839844 -0 1 -0
-0.736168086528778076 0 -0.98627859354019165 -0 1 -0
-0.718170285224914551 0 -0.882195472717285156 -0 1 -0
-0.668710768222808838 0 -0.955963850021362305 -0 1 -0
-0.650747299194335938 0 -0.907508969306945801 -0 1 -0
-0.587318003177642822 0 -0.966628193855285645 -0 1 -0
-0.74322742223739624 0 -0.837792873382568359 -0 1 -0
-0.671793818473815918 0 -0.841737508773803711 -0 1 -0
-0.791381537914276123 0 -0.830180227756500244 -0 1 -0
-0.772241890430450439 0 -0.759186804294586182 -0 1 -0
-0.469558209180831909 0 -0.913590908050537109 -0 1 -0
-0.478590339422225952 0 -0.969678580760955811 -0 1 -0
-0.392244189977645874 0 -0.938490748405456543 -0 1 -0
-0.342036932706832886 0 -0.996581196784973145 -0 1 -0
-0.291588723659515381 0 -0.985116779804229736 -0 1 -0
-0.208827078342437744 0 -0.996844232082366943 -0 1 -0
-0.528719484806060791 0 -0.976328909397125244 -0 1 -0
-0.94169926643371582 0 -0.48495936393737793 -0 1 -0
-0.89306718111038208 0 -0.420643925666809082 -0 1 -0
-0.954980671405792236 0 -0.416776806116104126 -0 1 -0
-0.886493921279907227 0 -0.468118280172348022 -0 1 -0
-0.848574638366699219 0 -0.522873938083648682 -0 1 -0
-0.838579773902893066 0 -0.419958651065826416 -0 1 -0
-0.955390572547912598 0 -0.312868773937225342 -0 1 -0
-0.898397207260131836 0 -0.336741358041763306 -0 1 -0
-0.79266822338104248 0 -0.404299676418304443 -0 1 -0
-0.807288169860839844 0 -0.459806084632873535 -0 1 -0
-0.848964035511016846 0 -0.327131897211074829 -0 1 -0
-0.900282144546508789 0 -0.283421695232391357 -0 1 -0
-0.811543941497802734 0 -0.260976463556289673 -0 1 -0
-0.757960319519042969 0 -0.30804714560508728 -0 1 -0
-0.706486284732818604 0 -0.485665738582611084 -0 1 -0
-0.663291692733764648 0 -0.559191584587097168 -0 1 -0
-0.627804875373840332 0 -0.609276831150054932 -0 1 -0
-0.714482307434082031 0 -0.544653475284576416 -0 1 -0
-0.698161959648132324 0 -0.611074149608612061 -0 1 -0
-0.761673986911773682 0 -0.515499591827392578 -0 1 -0
-0.792283296585083008 0 -0.55602186918258667 -0 1 -0
-0.899530708789825439 0 -0.225301861763000488 -0 1 -0
-0.919406890869140625 0 -0.182008638978004456 -0 1 -0
-0.921271204948425293 0 -0.12814033031463623 -0 1 -0
-0.850563466548919678 0 -0.19450126588344574 -0 1 -0
-0.972333192825317383 0 -0.164425432682037354 -0 1 -0
-0.94942086935043335 0 -0.256979584693908691 -0 1 -0
-0.960691332817077637 0 -0.0610659234225749969 -0 1 -0
-0.91525954008102417 0 -0.0424746274948120117 -0 1 -0
-0.893838167190551758 0 -0.0913263857364654541 -0 1 -0
-0.971394717693328857 0 0.0868686959147453308 -0 1 -0
-0.907639026641845703 0 0.070757746696472168 -0 1 -0
-0.863334357738494873 0 0.0494332872331142426 -0 1 -0
-0.826852798461914062 0 -0.0275226347148418427 -0 1 -0
-0.919974207878112793 0 0.116927534341812134 -0 1 -0
-0.820011913776397705 0 0.0232617910951375961 -0 1 -0
-0.961904764175415039 0 0.153842821717262268 -0 1 -0
-0.869268298149108887 0 0.12532508373260498 -0 1 -0
-0.822880864143371582 0 0.0893340781331062317 -0 1 -0
-0.892787694931030273 0 0.204555317759513855 -0 1 -0
-0.993023335933685303 0 0.206152886152267456 -0 1 -0
-0.967989325523376465 0 0.247799769043922424 -0 1 -0
-0.936040580272674561 0 0.298517227172851562 -0 1 -0
-0.893385529518127441 0 0.282098352909088135 -0 1 -0
-0.814254224300384521 0 0.246952593326568604 -0 1 -0
-0.972999870777130127 0 0.336149871349334717 -0 1 -0
-0.902654051780700684 0 0.344586491584777832 -0 1 -0
-0.838681995868682861 0 0.302081465721130371 -0 1 -0
-0.781643211841583252 0 0.283714145421981812 -0 1 -0
-0.865215539932250977 0 0.376896798610687256 -0 1 -0
-0.943842947483062744 0 0.379664063453674316 -0 1 -0
-0.944349288940429688 0 0.43899574875831604 -0 1 -0
-0.973429560661315918 0 0.485127389430999756 -0 1 -0
-0.883983254432678223 0 0.470746785402297974 -0 1 -0
-0.824303865432739258 0 0.413296788930892944 -0 1 -0
-0.767809867858886719 0 0.338424593210220337 -0 1 -0
-0.799418032169342041 0 0.457222163677215576 -0 1 -0
-0.753169476985931396 0 0.432182967662811279 -0 1 -0
-0.841852188110351562 0 0.503367185592651367 -0 1 -0
-0.891786456108093262 0 0.517544269561767578 -0 1 -0
-0.785131633281707764 0 0.508242964744567871 -0 1 -0
-0.850441217422485352 0 0.560621798038482666 -0 1 -0
-0.724499642848968506 0 0.523703217506408691 -0 1 -0
-0.708377420902252197 0 0.465034991502761841 -0 1 -0
-0.842018783092498779 0 0.611751198768615723 -0 1 -0
-0.72257620096206665 0 0.576461493968963623 -0 1 -0
-0.776752769947052002 0 0.622809290885925293 -0 1 -0
-0.901063740253448486 0 0.625628113746643066 -0 1 -0
-0.827440381050109863 0 0.690069854259490967 -0 1 -0
-0.893341898918151855 0 0.724361419677734375 -0 1 -0
-0.77364802360534668 0 0.679531693458557129 -0 1 -0
-0.822259187698364258 0 0.757451236248016357 -0 1 -0
-0.91309201717376709 0 0.778136134147644043 -0 1 -0
-0.879272341728210449 0 0.811970114707946777 -0 1 -0
-0.985195577144622803 0 0.782540857791900635 -0 1 -0
-0.992869257926940918 0 0.828650057315826416 -0 1 -0
