ply
format ascii 1.0
element vertex 909
property float x
property float y
property float z
property float nx
property float ny
property float nz
end_header
1 3.54988670349121094 0.766348421573638916 -1 -0 0
1 1.93527698516845703 0.482215315103530884 -1 -0 0
1 2.86752891540527344 0.41100543737411499 -1 -0 0
1 2.59729337692260742 0.432851791381835938 -1 -0 0
1 3.24127054214477539 -0.708875000476837158 -1 -0 0
1 3.60903382301330566 0.295435667037963867 -1 -0 0
1 3.91862607002258301 0.450763195753097534 -1 -0 0
1 2.62832307815551758 0.0997444391250610352 -1 -0 0
1 3.9795997142791748 0.782114624977111816 -1 -0 0
1 1.68577516078948975 0.0329927727580070496 -1 -0 0
1 3.66770005226135254 -0.662846505641937256 -1 -0 0
1 3.23137021064758301 -0.378430992364883423 -1 -0 0
1 1.99516737461090088 -0.0218008812516927719 -1 -0 0
1 3.6549992561340332 -0.514155805110931396 -1 -0 0
1 3.28099274635314941 0.0743700116872787476 -1 -0 0
1 2.98765802383422852 -0.621575772762298584 -1 -0 0
1 3.57295823097229004 -0.468243002891540527 -1 -0 0
1 0.736407160758972168 0.0594011172652244568 -1 -0 0
1 1.06132256984710693 0.252059459686279297 -1 -0 0
1 3.71522045135498047 -0.12989528477191925 -1 -0 0
1 2.47287750244140625 0.327226638793945312 -1 -0 0
1 3.09463071823120117 -0.615908980369567871 -1 -0 0
1 3.34907412528991699 -0.61823660135269165 -1 -0 0
1 3.87061929702758789 -0.687541306018829346 -1 -0 0
1 2.21537876129150391 -0.445128470659255981 -1 -0 0
1 2.61567306518554688 -0.434126526117324829 -1 -0 0
1 1.56760275363922119 0.298899441957473755 -1 -0 0
1 3.60196805000305176 0.787163674831390381 -1 -0 0
1 2.8093111515045166 0.441704094409942627 -1 -0 0
1 2.27763915061950684 -0.348013877868652344 -1 -0 0
1 2.75891876220703125 0.181215450167655945 -1 -0 0
1 3.60432910919189453 -0.289142876863479614 -1 -0 0
1 2.86060309410095215 -0.569786310195922852 -1 -0 0
1 2.98944568634033203 -0.563139677047729492 -1 -0 0
1 2.26101565361022949 -0.255800694227218628 -1 -0 0
1 3.33812046051025391 0.374170809984207153 -1 -0 0
1 1.53876709938049316 0.145987868309020996 -1 -0 0
1 3.02790975570678711 0.327667295932769775 -1 -0 0
1 3.07334637641906738 -0.140257954597473145 -1 -0 0
1 0.98577272891998291 0.210213929414749146 -1 -0 0
1 3.1027684211730957 -0.754659771919250488 -1 -0 0
1 3.96439909934997559 -0.275287061929702759 -1 -0 0
1 2.98130130767822266 -0.671207010746002197 -1 -0 0
1 2.6392054557800293 0.21862030029296875 -1 -0 0
1 2.2067265510559082 -0.0801931917667388916 -1 -0 0
1 3.14187908172607422 -0.549473345279693604 -1 -0 0
1 1.99480807781219482 -0.285253405570983887 -1 -0 0
1 3.36254000663757324 -0.828880190849304199 -1 -0 0
1 1.12116420269012451 -0.021941671147942543 -1 -0 0
1 3.94746303558349609 0.0549734607338905334 -1 -0 0
1 2.5175635814666748 -0.181190371513366699 -1 -0 0
1 3.59574174880981445 -0.779720902442932129 -1 -0 0
1 0.1015891432762146 0.0211966689676046371 -1 -0 0
1 2.49434733390808105 0.14854055643081665 -1 -0 0
1 2.16092395782470703 -0.43807712197303772 -1 -0 0
1 1.45196378231048584 -0.292273104190826416 -1 -0 0
1 2.22000813484191895 -0.14379507303237915 -1 -0 0
1 3.38288974761962891 -0.256851524114608765 -1 -0 0
1 3.32615041732788086 0.0159530211240053177 -1 -0 0
1 3.10785937309265137 -0.368859261274337769 -1 -0 0
1 1.30431151390075684 -0.150547012686729431 -1 -0 0
1 3.15351152420043945 0.740381777286529541 -1 -0 0
1 3.5241246223449707 -0.720929265022277832 -1 -0 0
1 2.40558528900146484 0.333579480648040771 -1 -0 0
1 2.43061113357543945 -0.133259117603302002 -1 -0 0
1 3.71734762191772461 -0.735160648822784424 -1 -0 0
1 3.60428762435913086 -0.583939135074615479 -1 -0 0
1 1.72817826271057129 -0.104486547410488129 -1 -0 0
1 3.98898983001708984 -0.227210879325866699 -1 -0 0
1 3.78538775444030762 0.904871702194213867 -1 -0 0
1 0.517858922481536865 0.046132996678352356 -1 -0 0
1 2.40800809860229492 -0.337362915277481079 -1 -0 0
1 2.5818476676940918 0.62795412540435791 -1 -0 0
1 3.64638471603393555 -0.449012160301208496 -1 -0 0
1 2.28830528259277344 0.0245199520140886307 -1 -0 0
1 2.76310586929321289 -0.436485171318054199 -1 -0 0
1 2.84496450424194336 -0.695027351379394531 -1 -0 0
1 1.7765127420425415 -0.0398543551564216614 -1 -0 0
1 3.70801830291748047 -0.602088272571563721 -1 -0 0
1 3.38139915466308594 0.0323365740478038788 -1 -0 0
1 3.23232460021972656 0.804150581359863281 -1 -0 0
1 3.19471597671508789 0.101257629692554474 -1 -0 0
1 1.62561678886413574 0.190478235483169556 -1 -0 0
1 3.4119255542755127 -0.643188178539276123 -1 -0 0
1 2.52184224128723145 -0.498323589563369751 -1 -0 0
1 3.14362192153930664 -0.654028356075286865 -1 -0 0
1 3.18383145332336426 -0.502714633941650391 -1 -0 0
1 2.90528297424316406 -0.664676547050476074 -1 -0 0
1 2.91425418853759766 -0.414456784725189209 -1 -0 0
1 1.96980762481689453 0.0405846312642097473 -1 -0 0
1 3.16152119636535645 0.365887194871902466 -1 -0 0
1 2.4595177173614502 -0.446085900068283081 -1 -0 0
1 2.7016298770904541 0.089817434549331665 -1 -0 0
1 2.40627408027648926 -0.205309629440307617 -1 -0 0
1 2.28822922706604004 -0.408818662166595459 -1 -0 0
1 3.45450186729431152 -0.211384236812591553 -1 -0 0
1 1.78771507740020752 0.41504475474357605 -1 -0 0
1 2.43296122550964355 0.243413448333740234 -1 -0 0
1 0.682625412940979004 -0.0610454566776752472 -1 -0 0
1 3.70649600028991699 -0.833774030208587646 -1 -0 0
1 2.51834607124328613 -0.122873075306415558 -1 -0 0
1 1.81490087509155273 -0.115004993975162506 -1 -0 0
1 3.59986114501953125 0.899348914623260498 -1 -0 0
1 3.12586593627929688 0.535220682621002197 -1 -0 0
1 3.70327472686767578 0.248088747262954712 -1 -0 0
1 3.41520142555236816 -0.0520496591925621033 -1 -0 0
1 2.98386883735656738 -0.000240191031480208039 -1 -0 0
1 2.66272997856140137 0.595817804336547852 -1 -0 0
1 3.9486243724822998 -0.926987707614898682 -1 -0 0
1 3.96461915969848633 0.408493161201477051 -1 -0 0
1 2.32031536102294922 -0.246973022818565369 -1 -0 0
1 3.9004967212677002 -0.96154707670211792 -1 -0 0
1 3.36666512489318848 0.57823103666305542 -1 -0 0
1 2.52647590637207031 -0.0329946540296077728 -1 -0 0
1 1.38659989833831787 -0.0557212010025978088 -1 -0 0
1 2.4954063892364502 0.0795634984970092773 -1 -0 0
1 2.60611319541931152 -0.174626663327217102 -1 -0 0
1 3.72341322898864746 0.814091622829437256 -1 -0 0
1 3.42051863670349121 0.748378455638885498 -1 -0 0
1 3.71885800361633301 0.351286232471466064 -1 -0 0
1 3.42166709899902344 0.68956679105758667 -1 -0 0
1 3.02637481689453125 0.734270274639129639 -1 -0 0
1 2.57346129417419434 0.286959707736968994 -1 -0 0
1 3.93749666213989258 0.285244196653366089 -1 -0 0
1 2.6430962085723877 0.371549546718597412 -1 -0 0
1 2.49094295501708984 0.522515296936035156 -1 -0 0
1 3.09610414505004883 -0.491728633642196655 -1 -0 0
1 3.62513828277587891 0.529223322868347168 -1 -0 0
1 1.97670400142669678 -0.37744063138961792 -1 -0 0
1 3.73330378532409668 -0.1824464350938797 -1 -0 0
1 3.87155938148498535 0.386113762855529785 -1 -0 0
1 2.8375403881072998 0.257582664489746094 -1 -0 0
1 2.94256973266601562 -0.106433369219303131 -1 -0 0
1 2.29743599891662598 0.526409685611724854 -1 -0 0
1 3.06476998329162598 0.672674059867858887 -1 -0 0
1 3.79081177711486816 0.722245514392852783 -1 -0 0
1 1.55830752849578857 0.0961553007364273071 -1 -0 0
1 2.12490367889404297 0.210975274443626404 -1 -0 0
1 1.43193340301513672 -0.0851611942052841187 -1 -0 0
1 2.81525468826293945 0.656934976577758789 -1 -0 0
1 2.34211587905883789 -0.00760941347107291222 -1 -0 0
1 3.52792596817016602 -0.600507080554962158 -1 -0 0
1 3.39207124710083008 -0.185705050826072693 -1 -0 0
1 1.72185742855072021 0.248334303498268127 -1 -0 0
1 3.93313384056091309 -0.395172357559204102 -1 -0 0
1 1.10048317909240723 0.211009502410888672 -1 -0 0
1 1.93743336200714111 0.332524776458740234 -1 -0 0
1 3.47894859313964844 0.761941611766815186 -1 -0 0
1 3.27637529373168945 0.183933570981025696 -1 -0 0
1 1.54409921169281006 0.0378850251436233521 -1 -0 0
1 2.16768455505371094 0.052087392657995224 -1 -0 0
1 3.52538633346557617 -0.849244296550750732 -1 -0 0
1 3.95448160171508789 0.940548181533813477 -1 -0 0
1 3.75481414794921875 0.243479281663894653 -1 -0 0
1 3.31264615058898926 -0.307060599327087402 -1 -0 0
1 2.07450604438781738 0.0669485628604888916 -1 -0 0
1 3.66163301467895508 -0.614280939102172852 -1 -0 0
1 3.98122215270996094 -0.461613297462463379 -1 -0 0
1 0.875453710556030273 -0.194913148880004883 -1 -0 0
1 3.8203577995300293 -0.274771928787231445 -1 -0 0
1 3.7425384521484375 -0.930083572864532471 -1 -0 0
1 1.17179656028747559 0.271804690361022949 -1 -0 0
1 3.34125256538391113 0.536984682083129883 -1 -0 0
1 2.24006938934326172 -0.403671294450759888 -1 -0 0
1 2.17825770378112793 0.497170448303222656 -1 -0 0
1 3.44699788093566895 0.156457781791687012 -1 -0 0
1 3.40099930763244629 0.831568539142608643 -1 -0 0
1 3.60351181030273438 0.730800092220306396 -1 -0 0
1 3.99237966537475586 -0.0842427536845207214 -1 -0 0
1 2.05478286743164062 0.0241206474602222443 -1 -0 0
1 3.8808135986328125 -0.303049713373184204 -1 -0 0
1 1.74125170707702637 0.0301309619098901749 -1 -0 0
1 1.49259662628173828 -0.240754395723342896 -1 -0 0
1 3.33180785179138184 0.808978080749511719 -1 -0 0
1 3.06675004959106445 -0.0580273084342479706 -1 -0 0
1 3.77860021591186523 -0.671287059783935547 -1 -0 0
1 3.99240803718566895 0.532706797122955322 -1 -0 0
1 0.477119922637939453 -0.0954027697443962097 -1 -0 0
1 3.04090261459350586 -0.549813926219940186 -1 -0 0
1 1.96600687503814697 0.19646415114402771 -1 -0 0
1 3.1725006103515625 0.152241304516792297 -1 -0 0
1 2.88170742988586426 -0.519572317600250244 -1 -0 0
1 3.59726929664611816 0.0455089695751667023 -1 -0 0
1 3.0129241943359375 0.4385853111743927 -1 -0 0
1 2.03922581672668457 0.416623950004577637 -1 -0 0
1 3.57812738418579102 -0.859252274036407471 -1 -0 0
1 2.21075439453125 0.201956778764724731 -1 -0 0
1 2.59798407554626465 -0.38015320897102356 -1 -0 0
1 1.82584428787231445 0.0508342981338500977 -1 -0 0
1 3.87763142585754395 0.330321639776229858 -1 -0 0
1 0.630781352519989014 0.119214437901973724 -1 -0 0
1 2.18310356140136719 -0.382374346256256104 -1 -0 0
1 3.52410292625427246 -0.121932260692119598 -1 -0 0
1 3.30231857299804688 -0.618164896965026855 -1 -0 0
1 2.74954795837402344 -0.147269085049629211 -1 -0 0
1 2.34227228164672852 0.534061968326568604 -1 -0 0
1 2.54702329635620117 -0.223108887672424316 -1 -0 0
1 1.90579628944396973 -0.437666743993759155 -1 -0 0
1 2.94600176811218262 -0.283831298351287842 -1 -0 0
1 2.28962922096252441 0.387187302112579346 -1 -0 0
1 3.06459999084472656 0.241661548614501953 -1 -0 0
1 3.17879319190979004 0.210735216736793518 -1 -0 0
1 1.52467250823974609 0.345703214406967163 -1 -0 0
1 1.64293229579925537 -0.279888570308685303 -1 -0 0
1 3.63160133361816406 -0.401684492826461792 -1 -0 0
1 2.13354587554931641 0.371912509202957153 -1 -0 0
1 3.93379592895507812 -0.446343183517456055 -1 -0 0
1 2.33661127090454102 -0.579234063625335693 -1 -0 0
1 1.78428542613983154 -0.280786663293838501 -1 -0 0
1 3.19030570983886719 0.270089596509933472 -1 -0 0
1 3.68897104263305664 0.431513071060180664 -1 -0 0
1 2.92208123207092285 -0.724319100379943848 -1 -0 0
1 3.54840278625488281 -0.0784334093332290649 -1 -0 0
1 2.48912620544433594 0.586997866630554199 -1 -0 0
1 2.43230724334716797 0.0949909612536430359 -1 -0 0
1 3.25183010101318359 0.515710949897766113 -1 -0 0
1 2.52228236198425293 -0.341972470283508301 -1 -0 0
1 2.89870095252990723 -0.054458126425743103 -1 -0 0
1 3.7761681079864502 0.67186272144317627 -1 -0 0
1 1.12843096256256104 0.156359240412712097 -1 -0 0
1 1.77258145809173584 0.0685772597789764404 -1 -0 0
1 3.43008565902709961 0.3217507004737854 -1 -0 0
1 2.78032898902893066 -0.106426462531089783 -1 -0 0
1 2.73195147514343262 -0.618951976299285889 -1 -0 0
1 0.237269997596740723 -0.0312502793967723846 -1 -0 0
1 1.46492588520050049 0.362273216247558594 -1 -0 0
1 1.92401564121246338 -0.370137304067611694 -1 -0 0
1 1.68370616436004639 0.358870267868041992 -1 -0 0
1 3.63870501518249512 -0.151359781622886658 -1 -0 0
1 3.41347146034240723 0.443152815103530884 -1 -0 0
1 2.92334365844726562 -0.490131616592407227 -1 -0 0
1 2.81914615631103516 0.309727370738983154 -1 -0 0
1 1.21128380298614502 0.00834306422621011734 -1 -0 0
1 2.1296074390411377 0.264479070901870728 -1 -0 0
1 1.27068817615509033 -0.189008012413978577 -1 -0 0
1 2.6399834156036377 0.171873912215232849 -1 -0 0
1 3.82897400856018066 0.537573397159576416 -1 -0 0
1 2.80439853668212891 -0.247786447405815125 -1 -0 0
1 2.05933547019958496 -0.333265215158462524 -1 -0 0
1 3.79959654808044434 -0.850042879581451416 -1 -0 0
1 3.03732490539550781 -0.445083111524581909 -1 -0 0
1 1.10842597484588623 0.0271151158958673477 -1 -0 0
1 3.5233314037322998 -0.782274186611175537 -1 -0 0
1 2.20449113845825195 -0.503597915172576904 -1 -0 0
1 2.25029110908508301 0.244624629616737366 -1 -0 0
1 0.432260334491729736 0.0800184831023216248 -1 -0 0
1 3.28212571144104004 -0.214721843600273132 -1 -0 0
1 2.00754451751708984 -0.331987947225570679 -1 -0 0
1 1.32310628890991211 0.0221257917582988739 -1 -0 0
1 2.72279906272888184 0.297564297914505005 -1 -0 0
1 2.27791953086853027 0.464635491371154785 -1 -0 0
1 2.95493412017822266 0.103077955543994904 -1 -0 0
1 2.96227312088012695 0.330480128526687622 -1 -0 0
1 2.06475639343261719 0.464343607425689697 -1 -0 0
1 2.47441601753234863 -0.357059478759765625 -1 -0 0
1 2.55670785903930664 -0.543894410133361816 -1 -0 0
1 3.35122275352478027 0.286918073892593384 -1 -0 0
1 3.5709531307220459 0.00348501652479171753 -1 -0 0
1 2.56869840621948242 0.476754307746887207 -1 -0 0
1 2.92337489128112793 0.538832128047943115 -1 -0 0
1 3.97425031661987305 0.987028717994689941 -1 -0 0
1 2.7901606559753418 -0.0236027389764785767 -1 -0 0
1 1.02126073837280273 0.0346896722912788391 -1 -0 0
1 3.27402377128601074 0.745211005210876465 -1 -0 0
1 2.70911788940429688 -0.421305328607559204 -1 -0 0
1 3.8823997974395752 0.513139903545379639 -1 -0 0
1 3.92560172080993652 -0.344046831130981445 -1 -0 0
1 3.46670317649841309 -0.0569979995489120483 -1 -0 0
1 2.17971587181091309 0.3800334632396698 -1 -0 0
1 3.41206908226013184 -0.759717345237731934 -1 -0 0
1 2.31792783737182617 0.221786484122276306 -1 -0 0
1 3.95520758628845215 0.154887408018112183 -1 -0 0
1 3.47985529899597168 -0.801435708999633789 -1 -0 0
1 1.69977045059204102 -0.181234836578369141 -1 -0 0
1 3.81358814239501953 0.825754463672637939 -1 -0 0
1 1.0313340425491333 0.177444905042648315 -1 -0 0
1 2.93580961227416992 0.42583891749382019 -1 -0 0
1 2.5252077579498291 0.309331357479095459 -1 -0 0
1 2.8507685661315918 0.514975190162658691 -1 -0 0
1 3.35889482498168945 -0.0568997859954833984 -1 -0 0
1 3.65282225608825684 -0.0822600051760673523 -1 -0 0
1 3.45714545249938965 0.6520577073097229 -1 -0 0
1 3.11399698257446289 -0.0365001261234283447 -1 -0 0
1 2.95921492576599121 -0.528024554252624512 -1 -0 0
1 1.43631625175476074 -0.345996886491775513 -1 -0 0
1 2.33853888511657715 0.350622564554214478 -1 -0 0
1 0.427781581878662109 0.0285778269171714783 -1 -0 0
1 2.23944592475891113 0.0477679185569286346 -1 -0 0
1 2.60106754302978516 0.323463350534439087 -1 -0 0
1 2.79735803604125977 -0.624905228614807129 -1 -0 0
1 1.15765798091888428 -0.0934086143970489502 -1 -0 0
1 3.67774677276611328 0.898163557052612305 -1 -0 0
1 3.67123293876647949 0.172783792018890381 -1 -0 0
1 3.96872043609619141 -0.509099781513214111 -1 -0 0
1 1.34730398654937744 0.236953213810920715 -1 -0 0
1 3.48899221420288086 -0.634021639823913574 -1 -0 0
1 3.22505021095275879 0.646627604961395264 -1 -0 0
1 1.34901750087738037 -0.322054117918014526 -1 -0 0
1 2.77789783477783203 0.612210988998413086 -1 -0 0
1 2.60860824584960938 0.585145950317382812 -1 -0 0
1 2.69693303108215332 -0.0331362709403038025 -1 -0 0
1 1.64198601245880127 -0.119696222245693207 -1 -0 0
1 3.89881634712219238 0.832032263278961182 -1 -0 0
1 3.9230351448059082 -0.732847332954406738 -1 -0 0
1 1.47394371032714844 -0.118787981569766998 -1 -0 0
1 3.13373470306396484 0.686039865016937256 -1 -0 0
1 2.78403472900390625 0.118959613144397736 -1 -0 0
1 3.7996828556060791 0.151589289307594299 -1 -0 0
1 1.23550283908843994 -0.151722550392150879 -1 -0 0
1 3.89847326278686523 -0.157636016607284546 -1 -0 0
1 3.89493989944458008 0.117511607706546783 -1 -0 0
1 3.02480363845825195 0.638810038566589355 -1 -0 0
1 2.85332489013671875 -0.616014659404754639 -1 -0 0
1 3.25266623497009277 -0.16090238094329834 -1 -0 0
1 2.99136853218078613 0.5245017409324646 -1 -0 0
1 3.83965253829956055 0.0291361678391695023 -1 -0 0
1 3.62001132965087891 0.846235334873199463 -1 -0 0
1 3.73053264617919922 0.716544508934020996 -1 -0 0
1 0.198011189699172974 0.0165614988654851913 -1 -0 0
1 1.94711458683013916 0.281135648488998413 -1 -0 0
1 1.39514660835266113 0.255957186222076416 -1 -0 0
1 1.75938498973846436 0.162858754396438599 -1 -0 0
1 3.60898375511169434 0.185495302081108093 -1 -0 0
1 0.315119147300720215 0.0578619278967380524 -1 -0 0
1 3.52278494834899902 0.465160638093948364 -1 -0 0
1 1.46445465087890625 0.174657657742500305 -1 -0 0
1 2.84821033477783203 0.204754814505577087 -1 -0 0
1 3.77589869499206543 -0.0421106629073619843 -1 -0 0
1 3.04340958595275879 0.570866942405700684 -1 -0 0
1 2.38112068176269531 0.236323297023773193 -1 -0 0
1 2.92652201652526855 -0.00388920912519097328 -1 -0 0
1 0.592052638530731201 -0.0510000623762607574 -1 -0 0
1 3.93650054931640625 0.536873459815979004 -1 -0 0
1 3.15824508666992188 0.0564179308712482452 -1 -0 0
1 1.85947120189666748 0.356130510568618774 -1 -0 0
1 2.05134391784667969 0.306548178195953369 -1 -0 0
1 3.62484979629516602 0.0987952649593353271 -1 -0 0
1 2.68514919281005859 0.199394255876541138 -1 -0 0
1 2.82864999771118164 -0.198959648609161377 -1 -0 0
1 2.71344971656799316 0.353314965963363647 -1 -0 0
1 2.45213007926940918 -0.311810940504074097 -1 -0 0
1 2.70087242126464844 -0.281441777944564819 -1 -0 0
1 2.22521066665649414 -0.285790055990219116 -1 -0 0
1 1.46930801868438721 -0.979850828647613525 -1 -0 -0
1 0.823863506317138672 -0.660169601440429688 -1 -0 -0
1 1.2437976598739624 -0.79813617467880249 -1 -0 -0
1 2.91390609741210938 -0.772059857845306396 -1 -0 -0
1 1.04784142971038818 -0.497093766927719116 -1 -0 -0
1 0.178405970335006714 -0.246495410799980164 -1 -0 -0
1 2.63774871826171875 -0.868009686470031738 -1 -0 -0
1 0.275061666965484619 -0.371996313333511353 -1 -0 -0
1 0.49396851658821106 -0.783897042274475098 -1 -0 -0
1 0.0477339774370193481 -0.463073045015335083 -1 -0 -0
1 1.23962891101837158 -0.711984515190124512 -1 -0 -0
1 0.408333778381347656 -0.502786457538604736 -1 -0 -0
1 2.06251907348632812 -0.748786091804504395 -1 -0 -0
1 3.05217909812927246 -0.767379939556121826 -1 -0 -0
1 1.0472569465637207 -0.575467467308044434 -1 -0 -0
1 0.934944629669189453 -0.893877387046813965 -1 -0 -0
1 2.56123971939086914 -0.850561380386352539 -1 -0 -0
1 2.33291792869567871 -0.922677278518676758 -1 -0 -0
1 1.40762031078338623 -0.407680392265319824 -1 -0 -0
1 0.204075127840042114 -0.815832912921905518 -1 -0 -0
1 0.104999206960201263 -0.281124323606491089 -1 -0 -0
1 2.15596365928649902 -0.649776041507720947 -1 -0 -0
1 2.11856222152709961 -0.736772358417510986 -1 -0 -0
1 1.6399303674697876 -0.86156696081161499 -1 -0 -0
1 1.34702730178833008 -0.531063079833984375 -1 -0 -0
1 1.44696855545043945 -0.504187643527984619 -1 -0 -0
1 1.2316824197769165 -0.554827213287353516 -1 -0 -0
1 2.65358948707580566 -0.66977161169052124 -1 -0 -0
1 0.338845193386077881 -0.132419317960739136 -1 -0 -0
1 0.927543401718139648 -0.512777030467987061 -1 -0 -0
1 2.45735740661621094 -0.983548879623413086 -1 -0 -0
1 1.11145424842834473 -0.893024861812591553 -1 -0 -0
1 2.51568794250488281 -0.674716591835021973 -1 -0 -0
1 1.0249016284942627 -0.786396622657775879 -1 -0 -0
1 0.439635306596755981 -0.281937450170516968 -1 -0 -0
1 0.541162073612213135 -0.872968912124633789 -1 -0 -0
1 1.06569051742553711 -0.406351178884506226 -1 -0 -0
1 0.180651009082794189 -0.766096949577331543 -1 -0 -0
1 3.02970457077026367 -0.976958632469177246 -1 -0 -0
1 2.16235923767089844 -0.999316811561584473 -1 -0 -0
1 3.00056219100952148 -0.762181878089904785 -1 -0 -0
1 2.41626119613647461 -0.719375967979431152 -1 -0 -0
1 2.02798962593078613 -0.847591638565063477 -1 -0 -0
1 0.360948652029037476 -0.350720763206481934 -1 -0 -0
1 1.75783264636993408 -0.94475400447845459 -1 -0 -0
1 0.95797044038772583 -0.852788686752319336 -1 -0 -0
1 1.01150763034820557 -0.735563933849334717 -1 -0 -0
1 1.99072396755218506 -0.792026519775390625 -1 -0 -0
1 1.42501938343048096 -0.90344548225402832 -1 -0 -0
1 0.960001587867736816 -0.696552634239196777 -1 -0 -0
1 1.02681410312652588 -0.690393507480621338 -1 -0 -0
1 1.19341552257537842 -0.391334652900695801 -1 -0 -0
1 0.399283468723297119 -0.441221475601196289 -1 -0 -0
1 1.90923261642456055 -0.530057787895202637 -1 -0 -0
1 1.58674418926239014 -0.401263922452926636 -1 -0 -0
1 2.5885169506072998 -0.803608953952789307 -1 -0 -0
1 0.446183383464813232 -0.772253155708312988 -1 -0 -0
1 2.11844658851623535 -0.940410971641540527 -1 -0 -0
1 2.07865476608276367 -0.917882919311523438 -1 -0 -0
1 0.65262526273727417 -0.612476646900177002 -1 -0 -0
1 0.286078870296478271 -0.613132655620574951 -1 -0 -0
1 0.399598509073257446 -0.327228635549545288 -1 -0 -0
1 2.20226097106933594 -0.629657208919525146 -1 -0 -0
1 2.26852869987487793 -0.814923763275146484 -1 -0 -0
1 2.30519914627075195 -0.879283785820007324 -1 -0 -0
1 2.11212563514709473 -0.535857319831848145 -1 -0 -0
1 0.324088692665100098 -0.986907601356506348 -1 -0 -0
1 0.704818964004516602 -0.368905842304229736 -1 -0 -0
1 2.22222399711608887 -0.709560215473175049 -1 -0 -0
1 1.17006754875183105 -0.322998672723770142 -1 -0 -0
1 1.99333226680755615 -0.592686951160430908 -1 -0 -0
1 1.31073260307312012 -0.367833226919174194 -1 -0 -0
1 0.640542984008789062 -0.928001701831817627 -1 -0 -0
1 0.0981453806161880493 -0.5857582688331604 -1 -0 -0
1 3.23010897636413574 -0.98226618766784668 -1 -0 -0
1 0.565002143383026123 -0.825996696949005127 -1 -0 -0
1 0.661281824111938477 -0.541871309280395508 -1 -0 -0
1 0.194063887000083923 -0.654506087303161621 -1 -0 -0
1 0.83953857421875 -0.453208416700363159 -1 -0 -0
1 1.85405445098876953 -0.654805779457092285 -1 -0 -0
1 1.74216651916503906 -0.888780176639556885 -1 -0 -0
1 0.576678574085235596 -0.734519422054290771 -1 -0 -0
1 0.664599239826202393 -0.226028025150299072 -1 -0 -0
1 0.232813164591789246 -0.754340529441833496 -1 -0 -0
1 2.69542717933654785 -0.899180769920349121 -1 -0 -0
1 0.211042985320091248 -0.323957353830337524 -1 -0 -0
1 2.89992547035217285 -0.882630288600921631 -1 -0 -0
1 1.73877108097076416 -0.685524702072143555 -1 -0 -0
1 1.36329174041748047 -0.610349953174591064 -1 -0 -0
1 2.60716509819030762 -0.695449292659759521 -1 -0 -0
1 1.87011420726776123 -0.942900538444519043 -1 -0 -0
1 0.501279354095458984 -0.201423242688179016 -1 -0 -0
1 3.22353959083557129 -0.832744300365447998 -1 -0 -0
1 1.30622196197509766 -0.711941540241241455 -1 -0 -0
1 0.0473522208631038666 -0.938010096549987793 -1 -0 -0
1 2.75857782363891602 -0.82178419828414917 -1 -0 -0
1 0.614550173282623291 -0.803181052207946777 -1 -0 -0
1 0.722254753112792969 -0.6340598464012146 -1 -0 -0
1 3.55490732192993164 -0.904970407485961914 -1 -0 -0
1 0.239902600646018982 -0.138617262244224548 -1 -0 -0
1 0.428952932357788086 -0.236520484089851379 -1 -0 -0
1 1.76335906982421875 -0.798775136470794678 -1 -0 -0
1 1.85752630233764648 -0.800213336944580078 -1 -0 -0
1 2.19883036613464355 -0.881690323352813721 -1 -0 -0
1 1.18986916542053223 -0.835890293121337891 -1 -0 -0
1 3.71782159805297852 -0.98263084888458252 -1 -0 -0
1 0.789693474769592285 -0.584748268127441406 -1 -0 -0
1 1.81605875492095947 -0.72235482931137085 -1 -0 -0
1 1.44794166088104248 -0.844827532768249512 -1 -0 -0
1 1.10440397262573242 -0.795284271240234375 -1 -0 -0
1 0.528889358043670654 -0.984772324562072754 -1 -0 -0
1 1.62988364696502686 -0.635082781314849854 -1 -0 -0
1 1.41925632953643799 -0.999891579151153564 -1 -0 -0
1 2.53737330436706543 -0.732016146183013916 -1 -0 -0
1 0.29024931788444519 -0.112218037247657776 -1 -0 -0
1 0.701365113258361816 -0.944091320037841797 -1 -0 -0
1 0.969307482242584229 -0.542812526226043701 -1 -0 -0
1 1.56081140041351318 -0.835605502128601074 -1 -0 -0
1 1.00616145133972168 -0.972527265548706055 -1 -0 -0
1 0.191186234354972839 -0.114027246832847595 -1 -0 -0
1 1.65996062755584717 -0.700899958610534668 -1 -0 -0
1 2.6977236270904541 -0.704737961292266846 -1 -0 -0
1 2.77905607223510742 -0.748307406902313232 -1 -0 -0
1 0.658582150936126709 -0.168381586670875549 -1 -0 -0
1 0.171157270669937134 -0.369609415531158447 -1 -0 -0
1 0.996482729911804199 -0.496820926666259766 -1 -0 -0
1 2.0047910213470459 -0.896774411201477051 -1 -0 -0
1 1.49561095237731934 -0.632385671138763428 -1 -0 -0
1 1.54806113243103027 -0.774505436420440674 -1 -0 -0
1 2.27664065361022949 -0.689400732517242432 -1 -0 -0
1 0.843443334102630615 -0.563632547855377197 -1 -0 -0
1 1.95831489562988281 -0.63191986083984375 -1 -0 -0
1 2.40379619598388672 -0.89674687385559082 -1 -0 -0
1 1.71701359748840332 -0.832244277000427246 -1 -0 -0
1 2.51139736175537109 -0.93256068229675293 -1 -0 -0
1 1.18150985240936279 -0.703347146511077881 -1 -0 -0
1 1.25158178806304932 -0.333191275596618652 -1 -0 -0
1 1.67067611217498779 -0.814258337020874023 -1 -0 -0
1 2.18691921234130859 -0.753314375877380371 -1 -0 -0
1 1.4887620210647583 -0.798926830291748047 -1 -0 -0
1 1.77260041236877441 -0.559387624263763428 -1 -0 -0
1 1.37097132205963135 -0.775132596492767334 -1 -0 -0
1 0.257440894842147827 -0.656317830085754395 -1 -0 -0
1 0.105664357542991638 -0.104073800146579742 -1 -0 -0
1 2.25441169738769531 -0.646147727966308594 -1 -0 -0
1 1.15912222862243652 -0.649050414562225342 -1 -0 -0
1 2.48668813705444336 -0.638082921504974365 -1 -0 -0
1 0.107223391532897949 -0.0282252505421638489 -1 -0 -0
1 1.62467455863952637 -0.465407431125640869 -1 -0 -0
1 0.563322842121124268 -0.586286425590515137 -1 -0 -0
1 0.0400685109198093414 -0.362157493829727173 -1 -0 -0
1 0.755464911460876465 -0.3299579918384552 -1 -0 -0
1 2.48784303665161133 -0.770476579666137695 -1 -0 -0
1 0.383154124021530151 -0.933671712875366211 -1 -0 -0
1 2.3012542724609375 -0.622677803039550781 -1 -0 -0
1 0.1463661789894104 -0.411568611860275269 -1 -0 -0
1 1.95385396480560303 -0.837005674839019775 -1 -0 -0
1 0.280267953872680664 -0.508255302906036377 -1 -0 -0
1 0.682758331298828125 -0.71257096529006958 -1 -0 -0
1 0.119935706257820129 -0.672897219657897949 -1 -0 -0
1 0.916474103927612305 -0.240860417485237122 -1 -0 -0
1 1.23697459697723389 -0.850319266319274902 -1 -0 -0
1 1.88348662853240967 -0.707786262035369873 -1 -0 -0
1 2.82248663902282715 -0.814084410667419434 -1 -0 -0
1 0.136104762554168701 -0.549932539463043213 -1 -0 -0
1 2.8671109676361084 -0.792613625526428223 -1 -0 -0
1 1.56456124782562256 -0.900953948497772217 -1 -0 -0
1 3.26643252372741699 -0.937468469142913818 -1 -0 -0
1 1.49527895450592041 -0.86634141206741333 -1 -0 -0
1 0.603815019130706787 -0.459954172372817993 -1 -0 -0
1 0.601580977439880371 -0.654097795486450195 -1 -0 -0
1 2.3383948802947998 -0.787918031215667725 -1 -0 -0
1 2.10166406631469727 -0.986632287502288818 -1 -0 -0
1 0.97323375940322876 -0.296456187963485718 -1 -0 -0
1 3.38054132461547852 -0.950605809688568115 -1 -0 -0
1 2.56127595901489258 -0.92751622200012207 -1 -0 -0
1 2.61072635650634766 -0.996131658554077148 -1 -0 -0
1 0.349572330713272095 -0.417715519666671753 -1 -0 -0
1 0.641152620315551758 -0.266135305166244507 -1 -0 -0
1 3.13859248161315918 -0.903150856494903564 -1 -0 -0
1 0.828921139240264893 -0.837871193885803223 -1 -0 -0
1 0.477453857660293579 -0.319640755653381348 -1 -0 -0
1 1.66349399089813232 -0.917254269123077393 -1 -0 -0
1 1.44424200057983398 -0.690859317779541016 -1 -0 -0
1 1.25446557998657227 -0.437674015760421753 -1 -0 -0
1 0.903272747993469238 -0.957664728164672852 -1 -0 -0
1 2.95378923416137695 -0.925540030002593994 -1 -0 -0
1 3.51530957221984863 -0.980581521987915039 -1 -0 -0
1 0.989806175231933594 -0.388723105192184448 -1 -0 -0
1 1.28257632255554199 -0.663626194000244141 -1 -0 -0
1 1.67083871364593506 -0.418270349502563477 -1 -0 -0
1 1.61434733867645264 -0.909856677055358887 -1 -0 -0
1 1.4208827018737793 -0.758123338222503662 -1 -0 -0
1 3.17500400543212891 -0.800128638744354248 -1 -0 -0
1 0.0760882049798965454 -0.78205418586730957 -1 -0 -0
1 2.32358908653259277 -0.691121160984039307 -1 -0 -0
1 1.1273949146270752 -0.531578898429870605 -1 -0 -0
1 1.54666006565093994 -0.961596906185150146 -1 -0 -0
1 2.58755326271057129 -0.649053096771240234 -1 -0 -0
1 0.692117869853973389 -0.445281922817230225 -1 -0 -0
1 0.806074261665344238 -0.355986118316650391 -1 -0 -0
1 2.20409798622131348 -0.948474407196044922 -1 -0 -0
1 0.753030240535736084 -0.674500584602355957 -1 -0 -0
1 1.98919153213500977 -0.736496031284332275 -1 -0 -0
1 1.80060112476348877 -0.642174243927001953 -1 -0 -0
1 2.15175247192382812 -0.879212319850921631 -1 -0 -0
1 0.249649167060852051 -0.948863685131072998 -1 -0 -0
1 2.09995508193969727 -0.685024559497833252 -1 -0 -0
1 3.32360100746154785 -0.942354083061218262 -1 -0 -0
1 0.307765007019042969 -0.332380801439285278 -1 -0 -0
1 1.30008077621459961 -0.526621341705322266 -1 -0 -0
1 1.93818521499633789 -0.67663121223449707 -1 -0 -0
1 0.26418498158454895 -0.0680232048034667969 -1 -0 -0
1 0.486070215702056885 -0.524195015430450439 -1 -0 -0
1 0.283172458410263062 -0.463162600994110107 -1 -0 -0
1 0.604015767574310303 -0.875981032848358154 -1 -0 -0
1 3.61002373695373535 -0.909576237201690674 -1 -0 -0
1 0.0756732150912284851 -0.0631802231073379517 -1 -0 -0
1 0.150454595685005188 -0.610886096954345703 -1 -0 -0
1 0.0425862148404121399 -0.510596215724945068 -1 -0 -0
1 1.10441291332244873 -0.3738822340965271 -1 -0 -0
1 1.32001578807830811 -0.636024713516235352 -1 -0 -0
1 1.53968048095703125 -0.722426891326904297 -1 -0 -0
1 0.217518359422683716 -0.98721390962600708 -1 -0 -0
1 2.78099608421325684 -0.961095750331878662 -1 -0 -0
1 1.27520322799682617 -0.961424291133880615 -1 -0 -0
1 0.039046894758939743 -0.8848152756690979 -1 -0 -0
1 1.29509806632995605 -0.884026885032653809 -1 -0 -0
1 1.08353090286254883 -0.975881040096282959 -1 -0 -0
1 0.557905316352844238 -0.536677539348602295 -1 -0 -0
1 1.31365334987640381 -0.792755007743835449 -1 -0 -0
1 0.554164767265319824 -0.646920502185821533 -1 -0 -0
1 1.23733460903167725 -0.90275043249130249 -1 -0 -0
1 0.982237040996551514 -0.60139995813369751 -1 -0 -0
1 1.39773857593536377 -0.473821818828582764 -1 -0 -0
1 1.21086740493774414 -0.94323265552520752 -1 -0 -0
1 0.927012622356414795 -0.599122703075408936 -1 -0 -0
1 0.895343661308288574 -0.866288602352142334 -1 -0 -0
1 3.22291755676269531 -0.884108781814575195 -1 -0 -0
1 1.67828094959259033 -0.619755327701568604 -1 -0 -0
1 1.82415902614593506 -0.545223057270050049 -1 -0 -0
1 0.871758222579956055 -0.711901605129241943 -1 -0 -0
1 0.447468876838684082 -0.368116229772567749 -1 -0 -0
1 0.778853058815002441 -0.712714135646820068 -1 -0 -0
1 1.91534841060638428 -0.78988569974899292 -1 -0 -0
1 0.489565819501876831 -0.899187684059143066 -1 -0 -0
1 2.40434718132019043 -0.630683541297912598 -1 -0 -0
1 0.847511649131774902 -0.616878747940063477 -1 -0 -0
1 2.63755035400390625 -0.795946300029754639 -1 -0 -0
1 3.4440462589263916 -0.93346405029296875 -1 -0 -0
1 0.113114476203918457 -0.956453025341033936 -1 -0 -0
1 0.924587547779083252 -0.660441696643829346 -1 -0 -0
1 0.838232100009918213 -0.288210093975067139 -1 -0 -0
1 0.547926366329193115 -0.28172728419303894 -1 -0 -0
1 0.291502237319946289 -0.796303272247314453 -1 -0 -0
1 3.07329010963439941 -0.902367591857910156 -1 -0 -0
1 1.58960223197937012 -0.666303098201751709 -1 -0 -0
1 1.19559121131896973 -0.496361672878265381 -1 -0 -0
1 0.551521480083465576 -0.455620318651199341 -1 -0 -0
1 0.564559817314147949 -0.375731408596038818 -1 -0 -0
1 0.771660983562469482 -0.789177536964416504 -1 -0 -0
1 1.38004064559936523 -0.908788621425628662 -1 -0 -0
1 1.10177922248840332 -0.624629855155944824 -1 -0 -0
1 2.66660594940185547 -0.756109237670898438 -1 -0 -0
1 0.0787387564778327942 -0.708342552185058594 -1 -0 -0
1 0.656185388565063477 -0.978861570358276367 -1 -0 -0
1 0.169100314378738403 -0.961969196796417236 -1 -0 -0
1 2.0220026969909668 -0.636662423610687256 -1 -0 -0
1 1.98725521564483643 -0.686619281768798828 -1 -0 -0
1 2.82202649116516113 -0.868402481079101562 -1 -0 -0
1 1.02984738349914551 -0.333074361085891724 -1 -0 -0
1 2.03490948677062988 -0.573162376880645752 -1 -0 -0
1 1.37262606620788574 -0.72474205493927002 -1 -0 -0
1 1.40225458145141602 -0.672369241714477539 -1 -0 -0
1 1.45087873935699463 -0.611686110496520996 -1 -0 -0
1 0.898288071155548096 -0.349248439073562622 -1 -0 -0
1 0.02532988041639328 -0.701335668563842773 -1 -0 -0
1 0.703957319259643555 -0.49886128306388855 -1 -0 -0
1 1.71201634407043457 -0.574705898761749268 -1 -0 -0
1 1.11800074577331543 -0.682645916938781738 -1 -0 -0
1 0.54397892951965332 -0.695691227912902832 -1 -0 -0
1 0.638280570507049561 -0.743773877620697021 -1 -0 -0
1 2.64231038093566895 -0.955299675464630127 -1 -0 -0
1 1.28168714046478271 -0.47472044825553894 -1 -0 -0
1 2.92358303070068359 -0.976069271564483643 -1 -0 -0
1 1.72992217540740967 -0.635214447975158691 -1 -0 -0
1 0.715759396553039551 -0.763548135757446289 -1 -0 -0
1 0.276596039533615112 -0.202776506543159485 -1 -0 -0
1 1.57223165035247803 -0.579914271831512451 -1 -0 -0
1 3.09956502914428711 -0.978200733661651611 -1 -0 -0
1 1.86724138259887695 -0.561005473136901855 -1 -0 -0
1 1.09171342849731445 -0.840517997741699219 -1 -0 -0
1 2.39267754554748535 -0.774853885173797607 -1 -0 -0
1 0.234497964382171631 -0.442306756973266602 -1 -0 -0
1 0.291634202003479004 -0.558521449565887451 -1 -0 -0
1 0.463109701871871948 -0.479330062866210938 -1 -0 -0
1 1.36990869045257568 -0.826313555240631104 -1 -0 -0
1 1.20700538158416748 -0.654166042804718018 -1 -0 -0
1 1.86644148826599121 -0.858821094036102295 -1 -0 -0
1 0.0649543032050132751 -0.251998096704483032 -1 -0 -0
1 0.320215880870819092 -0.86391526460647583 -1 -0 -0
1 2.92568445205688477 -0.840673923492431641 -1 -0 -0
1 2.53435945510864258 -0.997776627540588379 -1 -0 -0
1 0.876328527927398682 -0.411609828472137451 -1 -0 -0
1 0.931351661682128906 -0.40473330020904541 -1 -0 -0
1 2.82703590393066406 -0.918489992618560791 -1 -0 -0
1 1.56004965305328369 -0.478894293308258057 -1 -0 -0
1 0.93916553258895874 -0.760722339153289795 -1 -0 -0
1 0.0979744046926498413 -0.907078444957733154 -1 -0 -0
1 0.617747306823730469 -0.409214556217193604 -1 -0 -0
1 1.89471375942230225 -0.610836267471313477 -1 -0 -0
1 0.884580790996551514 -0.804897964000701904 -1 -0 -0
1 0.823716104030609131 -0.405299663543701172 -1 -0 -0
1 1.92062747478485107 -0.991784453392028809 -1 -0 -0
1 0.164382338523864746 -0.842684030532836914 -1 -0 -0
1 0.246260359883308411 -0.853255748748779297 -1 -0 -0
1 0.956165075302124023 -0.804714202880859375 -1 -0 -0
1 1.75797641277313232 -0.73556751012802124 -1 -0 -0
1 0.392939716577529907 -0.831595301628112793 -1 -0 -0
1 0.126261517405509949 -0.153817608952522278 -1 -0 -0
1 1.81026411056518555 -0.926793515682220459 -1 -0 -0
1 0.712192416191101074 -0.229316666722297668 -1 -0 -0
1 1.6745750904083252 -0.543857276439666748 -1 -0 -0
1 0.350380599498748779 -0.779028594493865967 -1 -0 -0
1 0.334868848323822021 -0.650633931159973145 -1 -0 -0
1 3.06139755249023438 -0.821372449398040771 -1 -0 -0
1 1.10926270484924316 -0.321331202983856201 -1 -0 -0
1 0.357869625091552734 -0.57950747013092041 -1 -0 -0
1 0.594409942626953125 -0.249805808067321777 -1 -0 -0
1 0.277007162570953369 -0.715597689151763916 -1 -0 -0
1 2.44233965873718262 -0.805364489555358887 -1 -0 -0
1 1.16171574592590332 -0.758904516696929932 -1 -0 -0
1 0.503764510154724121 -0.262201368808746338 -1 -0 -0
1 0.0594458915293216705 -0.838672041893005371 -1 -0 -0
1 2.9944455623626709 -0.891183674335479736 -1 -0 -0
1 0.497049450874328613 -0.638291239738464355 -1 -0 -0
1 0.199456796050071716 -0.411914169788360596 -1 -0 -0
1 0.965455949306488037 -0.444375932216644287 -1 -0 -0
1 3.10232901573181152 -0.847135841846466064 -1 -0 -0
1 0.814520001411437988 -0.957930803298950195 -1 -0 -0
1 1.66467487812042236 -0.998278498649597168 -1 -0 -0
1 0.788416624069213867 -0.444236844778060913 -1 -0 -0
1 3.45014667510986328 -0.882152140140533447 -1 -0 -0
1 0.137887775897979736 -0.723108291625976562 -1 -0 -0
1 0.388957113027572632 -0.153873562812805176 -1 -0 -0
1 1.81437969207763672 -0.834650576114654541 -1 -0 -0
1 1.62035048007965088 -0.554108083248138428 -1 -0 -0
1 0.760541200637817383 -0.504438042640686035 -1 -0 -0
1 0.426618278026580811 -0.865906894207000732 -1 -0 -0
1 1.9137580394744873 -0.914633691310882568 -1 -0 -0
1 0.0251185726374387741 -0.305301129817962646 -1 -0 -0
1 1.41212892532348633 -0.572160482406616211 -1 -0 -0
1 3.40056133270263672 -0.901791274547576904 -1 -0 -0
1 0.398725777864456177 -0.777308344841003418 -1 -0 -0
1 2.25002598762512207 -0.75680232048034668 -1 -0 -0
1 0.716405391693115234 -0.280674070119857788 -1 -0 -0
1 2.47674369812011719 -0.844374716281890869 -1 -0 -0
1 0.614555895328521729 -0.57073211669921875 -1 -0 -0
1 0.774467647075653076 -0.38825303316116333 -1 -0 -0
1 3.16753673553466797 -0.938752233982086182 -1 -0 -0
1 0.846552729606628418 -0.917373359203338623 -1 -0 -0
1 2.70070362091064453 -0.947850465774536133 -1 -0 -0
1 0.330045908689498901 -0.931170463562011719 -1 -0 -0
1 1.37579429149627686 -0.978592514991760254 -1 -0 -0
1 1.71104955673217773 -0.943882286548614502 -1 -0 -0
1 0.770421385765075684 -0.845536947250366211 -1 -0 -0
1 0.337843745946884155 -0.290049463510513306 -1 -0 -0
1 0.600797653198242188 -0.202924981713294983 -1 -0 -0
1 1.59956121444702148 -0.728654265403747559 -1 -0 -0
1 0.995925724506378174 -0.907340288162231445 -1 -0 -0
1 1.71407711505889893 -0.514391422271728516 -1 -0 -0
1 2.053802490234375 -0.697247564792633057 -1 -0 -0
1 2.58124756813049316 -0.745899319648742676 -1 -0 -0
1 0.288216292858123779 -0.269318431615829468 -1 -0 -0
1 0.789905667304992676 -0.278646141290664673 -1 -0 -0
1 1.1351548433303833 -0.9420662522315979 -1 -0 -0
1 0.371126860380172729 -0.877628624439239502 -1 -0 -0
1 0.114474952220916748 -0.826299548149108887 -1 -0 -0
1 0.529686093330383301 -0.325913071632385254 -1 -0 -0
1 2.16312217712402344 -0.707163214683532715 -1 -0 -0
1 2.26201605796813965 -0.921793758869171143 -1 -0 -0
1 2.23772001266479492 -0.592306554317474365 -1 -0 -0
1 1.01298868656158447 -0.862461686134338379 -1 -0 -0
1 2.20807361602783203 -0.997651338577270508 -1 -0 -0
1 1.33103585243225098 -0.451989233493804932 -1 -0 -0
1 0.471804201602935791 -0.853521525859832764 -1 -0 -0
1 1.13983702659606934 -0.422274321317672729 -1 -0 -0
1 0.194619238376617432 -0.175933927297592163 -1 -0 -0
1 1.47178769111633301 -0.755807340145111084 -1 -0 -0
1 2.52741670608520508 -0.814682483673095703 -1 -0 -0
1 0.407291412353515625 -0.611001431941986084 -1 -0 -0
1 0.442095637321472168 -0.65985572338104248 -1 -0 -0
1 3.32578325271606445 -0.86181265115737915 -1 -0 -0
1 1.25709688663482666 -0.611644744873046875 -1 -0 -0
1 1.17206466197967529 -0.560222089290618896 -1 -0 -0
1 0.360715299844741821 -0.472682714462280273 -1 -0 -0
1 1.51472151279449463 -0.915654182434082031 -1 -0 -0
1 1.98599076271057129 -0.541477322578430176 -1 -0 -0
1 1.11186039447784424 -0.460515886545181274 -1 -0 -0
1 1.35014116764068604 -0.394420534372329712 -1 -0 -0
1 0.647172033786773682 -0.83938145637512207 -1 -0 -0
1 2.34136080741882324 -0.845426201820373535 -1 -0 -0
1 2.29360628128051758 -0.964244723320007324 -1 -0 -0
1 1.74666368961334229 -0.453882306814193726 -1 -0 -0
1 0.566320359706878662 -0.944355487823486328 -1 -0 -0
1 0.183287873864173889 -0.500584244728088379 -1 -0 -0
1 3.17445254325866699 -0.845817804336547852 -1 -0 -0
1 1.03020691871643066 -0.638618350028991699 -1 -0 -0
1 0.896631479263305664 -0.558997273445129395 -1 -0 -0
1 2.08139634132385254 -0.825180411338806152 -1 -0 -0
1 2.10705304145812988 -0.608985483646392822 -1 -0 -0
1 1.82408273220062256 -0.494919896125793457 -1 -0 -0
1 2.72317361831665039 -0.99966895580291748 -1 -0 -0
1 3.56325697898864746 -0.990023195743560791 -1 -0 -0
1 0.619378924369812012 -0.317156106233596802 -1 -0 -0
1 0.224546670913696289 -0.700509905815124512 -1 -0 -0
1 0.446946829557418823 -0.147639796137809753 -1 -0 -0
1 2.42041802406311035 -0.943185865879058838 -1 -0 -0
1 0.47483101487159729 -0.414688289165496826 -1 -0 -0
1 3.63777899742126465 -0.958088219165802002 -1 -0 -0
1 0.851947546005249023 -0.509399473667144775 -1 -0 -0
1 0.782959997653961182 -0.229353338479995728 -1 -0 -0
1 0.0902677923440933228 -0.410181164741516113 -1 -0 -0
1 2.45545387268066406 -0.900857150554656982 -1 -0 -0
1 2.23351120948791504 -0.848536252975463867 -1 -0 -0
1 2.13636684417724609 -0.821081817150115967 -1 -0 -0
1 0.222326353192329407 -0.268130183219909668 -1 -0 -0
1 0.0485777370631694794 -0.147195726633071899 -1 -0 -0
1 1.48507511615753174 -0.410355150699615479 -1 -0 -0
1 1.66548657417297363 -0.493110150098800659 -1 -0 -0
1 2.48241734504699707 -0.718196094036102295 -1 -0 -0
1 3.27282238006591797 -0.857245683670043945 -1 -0 -0
1 0.0895007923245429993 -0.3634377121925354 -1 -0 -0
1 1.94104218482971191 -0.582059562206268311 -1 -0 -0
1 2.67715740203857422 -0.833697676658630371 -1 -0 -0
1 0.27531355619430542 -0.900971770286560059 -1 -0 -0
1 0.816486954689025879 -0.765440583229064941 -1 -0 -0
1 1.76464402675628662 -0.996550798416137695 -1 -0 -0
1 0.804923772811889648 -0.895740330219268799 -1 -0 -0
1 2.9834904670715332 -0.839673161506652832 -1 -0 -0
1 0.0263021774590015411 -0.778828918933868408 -1 -0 -0
1 0.0391918644309043884 -0.619252443313598633 -1 -0 -0
1 1.49940943717956543 -0.52939307689666748 -1 -0 -0
1 0.0825103819370269775 -0.639174461364746094 -1 -0 -0
1 0.106025718152523041 -0.210391819477081299 -1 -0 -0
1 0.712780892848968506 -0.838082671165466309 -1 -0 -0
1 1.81632816791534424 -0.980333864688873291 -1 -0 -0
1 1.60074973106384277 -0.507300615310668945 -1 -0 -0
1 1.02989304065704346 -0.4503287672996521 -1 -0 -0
1 1.15120792388916016 -0.868726849555969238 -1 -0 -0
1 0.460851162672042847 -0.946561038494110107 -1 -0 -0
1 1.30008351802825928 -0.587757289409637451 -1 -0 -0
1 1.26997780799865723 -0.749812901020050049 -1 -0 -0
1 0.183541789650917053 -0.895771265029907227 -1 -0 -0
1 0.676953554153442383 -0.316907584667205811 -1 -0 -0
1 0.452175259590148926 -0.558954119682312012 -1 -0 -0
1 0.0950278043746948242 -0.514913499355316162 -1 -0 -0
1 0.5114096999168396 -0.375315546989440918 -1 -0 -0
1 0.326719611883163452 -0.724721074104309082 -1 -0 -0
1 3.35575771331787109 -0.994367837905883789 -1 -0 -0
1 1.01970767974853516 -0.272131562232971191 -1 -0 -0
1 1.50713026523590088 -0.454808890819549561 -1 -0 -0
1 0.499023467302322388 -0.137679055333137512 -1 -0 -0
1 2.04141855239868164 -0.977111518383026123 -1 -0 -0
1 0.925604104995727539 -0.290505647659301758 -1 -0 -0
1 0.208687648177146912 -0.555379092693328857 -1 -0 -0
1 1.33339691162109375 -0.935019433498382568 -1 -0 -0
1 0.736126065254211426 -0.900642454624176025 -1 -0 -0
1 0.396874666213989258 -0.724960029125213623 -1 -0 -0
1 1.55426144599914551 -0.637401044368743896 -1 -0 -0
1 3.82457065582275391 -0.976273536682128906 -1 -0 -0
1 1.04862809181213379 -0.929594635963439941 -1 -0 -0
1 0.738355815410614014 -0.578646004199981689 -1 -0 -0
1 1.69663524627685547 -0.731006920337677002 -1 -0 -0
-0.556366324424743652 1.92776608467102051 1 -0 -0 -1
-0.100579768419265747 0.389467597007751465 1 -0 -0 -1
-0.829480886459350586 2.08160996437072754 1 -0 -0 -1
-0.63077777624130249 1.19002699851989746 1 -0 -0 -1
-0.752491474151611328 0.748720109462738037 1 -0 -0 -1
-0.837136328220367432 2.53841376304626465 1 -0 -0 -1
-0.391734778881072998 0.398364126682281494 1 -0 -0 -1
-0.925857782363891602 1.30411863327026367 1 -0 -0 -1
-0.968783974647521973 1.35202860832214355 1 -0 -0 -1
-0.738289773464202881 2.06212711334228516 1 -0 -0 -1
-0.874286890029907227 2.41126585006713867 1 -0 -0 -1
-0.894547820091247559 1.87366890907287598 1 -0 -0 -1
-0.271582573652267456 0.677599966526031494 1 -0 -0 -1
-0.146141216158866882 0.413405567407608032 1 -0 -0 -1
-0.689382553100585938 0.360338121652603149 1 -0 -0 -1
-0.516997039318084717 1.3130725622177124 1 -0 -0 -1
-0.385349661111831665 0.966927409172058105 1 -0 -0 -1
-0.851854085922241211 2.77032637596130371 1 -0 -0 -1
-0.177602216601371765 0.622944891452789307 1 -0 -0 -1
-0.476278752088546753 0.837852239608764648 1 -0 -0 -1
-0.598990440368652344 1.33048379421234131 1 -0 -0 -1
-0.932489156723022461 1.52567493915557861 1 -0 -0 -1
-0.981275260448455811 1.02623319625854492 1 -0 -0 -1
-0.606821596622467041 0.514164447784423828 1 -0 -0 -1
-0.945802390575408936 2.0311729907989502 1 -0 -0 -1
-0.926600217819213867 3.18294405937194824 1 -0 -0 -1
-0.554577946662902832 1.11264491081237793 1 -0 -0 -1
-0.973981976509094238 3.51758193969726562 1 -0 -0 -1
-0.729421854019165039 1.24836623668670654 1 -0 -0 -1
-0.670039892196655273 0.722994148731231689 1 -0 -0 -1
-0.84995037317276001 1.97718226909637451 1 -0 -0 -1
-0.950891375541687012 3.0812990665435791 1 -0 -0 -1
-0.966201364994049072 1.5841987133026123 1 -0 -0 -1
-0.826325476169586182 1.65916717052459717 1 -0 -0 -1
-0.679870545864105225 0.879110753536224365 1 -0 -0 -1
-0.66068500280380249 1.01969242095947266 1 -0 -0 -1
-0.753439724445343018 2.63216567039489746 1 -0 -0 -1
-0.94776451587677002 1.84440755844116211 1 -0 -0 -1
-0.808034539222717285 0.781811296939849854 1 -0 -0 -1
-0.801345348358154297 2.22033095359802246 1 -0 -0 -1
-0.656471967697143555 1.7912825345993042 1 -0 -0 -1
-0.951903402805328369 0.926239728927612305 1 -0 -0 -1
-0.830317437648773193 0.419212967157363892 1 -0 -0 -1
-0.42730402946472168 1.0125432014465332 1 -0 -0 -1
-0.943896353244781494 2.94781184196472168 1 -0 -0 -1
-0.736079216003417969 0.546372771263122559 1 -0 -0 -1
-0.23376782238483429 0.473066270351409912 1 -0 -0 -1
-0.194288462400436401 0.398594826459884644 1 -0 -0 -1
-0.0918322727084159851 0.582683384418487549 1 -0 -0 -1
-0.899731636047363281 2.01728487014770508 1 -0 -0 -1
-0.619223952293395996 0.945760786533355713 1 -0 -0 -1
-0.652613461017608643 0.529329836368560791 1 -0 -0 -1
-0.746084809303283691 3.00234794616699219 1 -0 -0 -1
-0.605487048625946045 1.12036359310150146 1 -0 -0 -1
-0.640451431274414062 1.89427900314331055 1 -0 -0 -1
-0.780441761016845703 1.89490604400634766 1 -0 -0 -1
-0.857437670230865479 3.36037421226501465 1 -0 -0 -1
-0.673901975154876709 1.16120827198028564 1 -0 -0 -1
-0.289382725954055786 0.566018998622894287 1 -0 -0 -1
-0.300127148628234863 0.518350541591644287 1 -0 -0 -1
-0.526424109935760498 1.25301253795623779 1 -0 -0 -1
-0.13092339038848877 0.300147324800491333 1 -0 -0 -1
-0.542425155639648438 1.97457873821258545 1 -0 -0 -1
-0.437882184982299805 0.422908097505569458 1 -0 -0 -1
-0.501959264278411865 1.60746729373931885 1 -0 -0 -1
-0.462932974100112915 0.348076969385147095 1 -0 -0 -1
-0.626965641975402832 2.59246182441711426 1 -0 -0 -1
-0.145972862839698792 0.731223523616790771 1 -0 -0 -1
-0.710319995880126953 0.507728993892669678 1 -0 -0 -1
-0.679278075695037842 2.09072756767272949 1 -0 -0 -1
-0.236443489789962769 1.02211868762969971 1 -0 -0 -1
-0.822154104709625244 1.15963470935821533 1 -0 -0 -1
-0.934768438339233398 2.20276832580566406 1 -0 -0 -1
-0.932535648345947266 3.24623584747314453 1 -0 -0 -1
-0.722193241119384766 1.36972951889038086 1 -0 -0 -1
-0.89617234468460083 0.659034669399261475 1 -0 -0 -1
-0.734081566333770752 2.76264619827270508 1 -0 -0 -1
-0.830701053142547607 1.70732784271240234 1 -0 -0 -1
-0.874731957912445068 1.09397649765014648 1 -0 -0 -1
-0.652318298816680908 0.459171831607818604 1 -0 -0 -1
-0.694074571132659912 2.51319789886474609 1 -0 -0 -1
-0.873666524887084961 1.0226743221282959 1 -0 -0 -1
-0.892602920532226562 0.740161240100860596 1 -0 -0 -1
-0.171428412199020386 0.787883460521697998 1 -0 -0 -1
-0.75764918327331543 1.40822279453277588 1 -0 -0 -1
-0.914914608001708984 2.07270359992980957 1 -0 -0 -1
-0.719394922256469727 0.407523483037948608 1 -0 -0 -1
-0.781478226184844971 1.22709834575653076 1 -0 -0 -1
-0.627745509147644043 1.42035889625549316 1 -0 -0 -1
-0.195421859622001648 0.957332015037536621 1 -0 -0 -1
-0.425717383623123169 1.80858707427978516 1 -0 -0 -1
-0.872504293918609619 2.1500098705291748 1 -0 -0 -1
