ply
format ascii 1.0
element vertex 926
property float x
property float y
property float z
property float nx
property float ny
property float nz
end_header
1 1.66129040718078613 -0.465179860591888428 -1 -0 -0
1 2.55230879783630371 -0.936766147613525391 -1 -0 -0
1 0.911946594715118408 -0.247721761465072632 -1 -0 -0
1 3.32300519943237305 -0.87102818489074707 -1 -0 -0
1 3.05328941345214844 -0.926369607448577881 -1 -0 -0
1 0.280966877937316895 -0.497759073972702026 -1 -0 -0
1 1.10369563102722168 -0.572239220142364502 -1 -0 -0
1 3.51500844955444336 -0.918205916881561279 -1 -0 -0
1 2.25605893135070801 -0.963911831378936768 -1 -0 -0
1 1.3509361743927002 -0.468145430088043213 -1 -0 -0
1 0.924399912357330322 -0.563137233257293701 -1 -0 -0
1 0.482698261737823486 -0.59113997220993042 -1 -0 -0
1 1.50834393501281738 -0.555424869060516357 -1 -0 -0
1 1.97403264045715332 -0.834148883819580078 -1 -0 -0
1 0.757488846778869629 -0.999546706676483154 -1 -0 -0
1 2.94144964218139648 -0.761404573917388916 -1 -0 -0
1 1.19763481616973877 -0.680424809455871582 -1 -0 -0
1 0.223770648241043091 -0.814618229866027832 -1 -0 -0
1 0.667235612869262695 -0.800667226314544678 -1 -0 -0
1 3.76279330253601074 -0.959196388721466064 -1 -0 -0
1 0.423617035150527954 -0.914446234703063965 -1 -0 -0
1 0.011160779744386673 -0.651538670063018799 -1 -0 -0
1 1.66865050792694092 -0.85882413387298584 -1 -0 -0
1 1.68832790851593018 -0.638608336448669434 -1 -0 -0
1 1.31121385097503662 -0.502552926540374756 -1 -0 -0
1 0.197744861245155334 -0.855312168598175049 -1 -0 -0
1 2.72590065002441406 -0.758666157722473145 -1 -0 -0
1 2.29667472839355469 -0.574934005737304688 -1 -0 -0
1 2.07384419441223145 -0.662567317485809326 -1 -0 -0
1 1.54175376892089844 -0.507094502449035645 -1 -0 -0
1 2.14483475685119629 -0.859772205352783203 -1 -0 -0
1 1.06432938575744629 -0.857755959033966064 -1 -0 -0
1 1.12542963027954102 -0.41268312931060791 -1 -0 -0
1 1.24292194843292236 -0.653171539306640625 -1 -0 -0
1 1.93620014190673828 -0.652512848377227783 -1 -0 -0
1 0.868310511112213135 -0.991414308547973633 -1 -0 -0
1 1.02216339111328125 -0.434008687734603882 -1 -0 -0
1 0.955778002738952637 -0.869702577590942383 -1 -0 -0
1 0.564155638217926025 -0.395647495985031128 -1 -0 -0
1 3.62745761871337891 -0.958552718162536621 -1 -0 -0
1 1.31982254981994629 -0.956669986248016357 -1 -0 -0
1 1.44928836822509766 -0.740210533142089844 -1 -0 -0
1 0.793175995349884033 -0.517541110515594482 -1 -0 -0
1 0.320125311613082886 -0.292856663465499878 -1 -0 -0
1 3.39258551597595215 -0.996399760246276855 -1 -0 -0
1 1.46207559108734131 -0.599839866161346436 -1 -0 -0
1 0.708678245544433594 -0.889996111392974854 -1 -0 -0
1 1.74408626556396484 -0.785409808158874512 -1 -0 -0
1 0.382606148719787598 -0.614270329475402832 -1 -0 -0
1 2.04505300521850586 -0.791216909885406494 -1 -0 -0
1 2.08832335472106934 -0.718467831611633301 -1 -0 -0
1 0.491574138402938843 -0.305495589971542358 -1 -0 -0
1 0.491336971521377563 -0.403660506010055542 -1 -0 -0
1 1.34042549133300781 -0.59593963623046875 -1 -0 -0
1 0.990660548210144043 -0.823856711387634277 -1 -0 -0
1 2.4150702953338623 -0.871100366115570068 -1 -0 -0
1 0.313644349575042725 -0.185125887393951416 -1 -0 -0
1 0.591343581676483154 -0.761720001697540283 -1 -0 -0
1 1.97399771213531494 -0.879899859428405762 -1 -0 -0
1 0.361351817846298218 -0.259467720985412598 -1 -0 -0
1 0.170688897371292114 -0.385645389556884766 -1 -0 -0
1 2.69917798042297363 -0.978969275951385498 -1 -0 -0
1 0.134243786334991455 -0.309937983751296997 -1 -0 -0
1 2.48223400115966797 -0.995050907135009766 -1 -0 -0
1 0.278073370456695557 -0.960480272769927979 -1 -0 -0
1 3.10203099250793457 -0.815786838531494141 -1 -0 -0
1 0.798599004745483398 -0.767257332801818848 -1 -0 -0
1 0.591569185256958008 -0.589722812175750732 -1 -0 -0
1 0.877430856227874756 -0.898352205753326416 -1 -0 -0
1 0.0737657323479652405 -0.360786527395248413 -1 -0 -0
1 0.162650525569915771 -0.563126862049102783 -1 -0 -0
1 1.89297914505004883 -0.861898601055145264 -1 -0 -0
1 0.547453343868255615 -0.289385795593261719 -1 -0 -0
1 0.715133368968963623 -0.597760617733001709 -1 -0 -0
1 0.34545859694480896 -0.934637904167175293 -1 -0 -0
1 0.395320534706115723 -0.509451746940612793 -1 -0 -0
1 0.0750031396746635437 -0.967139959335327148 -1 -0 -0
1 2.50077080726623535 -0.938745856285095215 -1 -0 -0
1 0.617607712745666504 -0.18352314829826355 -1 -0 -0
1 2.75843524932861328 -0.859883725643157959 -1 -0 -0
1 2.09808206558227539 -0.806489825248718262 -1 -0 -0
1 0.153242155909538269 -0.634817063808441162 -1 -0 -0
1 2.18702220916748047 -0.88394927978515625 -1 -0 -0
1 0.34105721116065979 -0.474190026521682739 -1 -0 -0
1 1.31636130809783936 -0.384878307580947876 -1 -0 -0
1 1.72545206546783447 -0.729538798332214355 -1 -0 -0
1 2.19686985015869141 -0.598086655139923096 -1 -0 -0
1 1.95526981353759766 -0.499936521053314209 -1 -0 -0
1 0.327326565980911255 -0.685131490230560303 -1 -0 -0
1 1.44620370864868164 -0.464077353477478027 -1 -0 -0
1 0.353119909763336182 -0.355408549308776855 -1 -0 -0
1 2.4604640007019043 -0.886668205261230469 -1 -0 -0
1 0.79272305965423584 -0.949236035346984863 -1 -0 -0
1 1.16780257225036621 -0.885335147380828857 -1 -0 -0
1 1.99401247501373291 -0.780913829803466797 -1 -0 -0
1 0.19039270281791687 -0.161625057458877563 -1 -0 -0
1 1.89213109016418457 -0.684142768383026123 -1 -0 -0
1 0.526559293270111084 -0.524436593055725098 -1 -0 -0
1 0.499257594347000122 -0.149450957775115967 -1 -0 -0
1 1.00333404541015625 -0.883849620819091797 -1 -0 -0
1 0.963468253612518311 -0.619606733322143555 -1 -0 -0
1 1.87058413028717041 -0.755367398262023926 -1 -0 -0
1 2.7952268123626709 -0.756652593612670898 -1 -0 -0
1 0.247578606009483337 -0.375843703746795654 -1 -0 -0
1 0.583386242389678955 -0.221360787749290466 -1 -0 -0
1 0.514985203742980957 -0.253312498331069946 -1 -0 -0
1 2.61701774597167969 -0.856395542621612549 -1 -0 -0
1 0.568004906177520752 -0.815430045127868652 -1 -0 -0
1 0.872053802013397217 -0.632693231105804443 -1 -0 -0
1 2.90344476699829102 -0.913598060607910156 -1 -0 -0
1 0.961671352386474609 -0.386456668376922607 -1 -0 -0
1 1.43254637718200684 -0.37567216157913208 -1 -0 -0
1 1.5316166877746582 -0.756499350070953369 -1 -0 -0
1 1.99956095218658447 -0.997463643550872803 -1 -0 -0
1 0.877401471138000488 -0.412686735391616821 -1 -0 -0
1 2.73887825012207031 -0.948173642158508301 -1 -0 -0
1 0.962128221988677979 -0.476190090179443359 -1 -0 -0
1 0.0729363113641738892 -0.177482753992080688 -1 -0 -0
1 0.235697105526924133 -0.0949434638023376465 -1 -0 -0
1 1.15542328357696533 -0.457514792680740356 -1 -0 -0
1 0.870966076850891113 -0.686395704746246338 -1 -0 -0
1 1.07943189144134521 -0.441982179880142212 -1 -0 -0
1 3.03973603248596191 -0.845220029354095459 -1 -0 -0
1 1.1628032922744751 -0.744130432605743408 -1 -0 -0
1 0.0724610313773155212 -0.588762879371643066 -1 -0 -0
1 1.53632068634033203 -0.934409201145172119 -1 -0 -0
1 3.39952850341796875 -0.934978485107421875 -1 -0 -0
1 0.230063900351524353 -0.598205685615539551 -1 -0 -0
1 0.826477229595184326 -0.462706536054611206 -1 -0 -0
1 0.144956797361373901 -0.455814838409423828 -1 -0 -0
1 3.15598368644714355 -0.885841846466064453 -1 -0 -0
1 0.402087599039077759 -0.106451570987701416 -1 -0 -0
1 1.49276614189147949 -0.826460063457489014 -1 -0 -0
1 0.0484328120946884155 -0.495144069194793701 -1 -0 -0
1 0.723513603210449219 -0.247228175401687622 -1 -0 -0
1 1.41815006732940674 -0.537693381309509277 -1 -0 -0
1 0.373807281255722046 -0.672137975692749023 -1 -0 -0
1 0.801367640495300293 -0.355679333209991455 -1 -0 -0
1 0.0996401309967041016 -0.643371760845184326 -1 -0 -0
1 2.63864541053771973 -0.68671870231628418 -1 -0 -0
1 1.924416184425354 -0.941094458103179932 -1 -0 -0
1 2.21376991271972656 -0.772123217582702637 -1 -0 -0
-1 2.31562566757202148 0.871453404426574707 1 0 -0
-1 2.03284502029418945 0.797709226608276367 1 0 -0
-1 3.36698627471923828 0.832174599170684814 1 0 -0
-1 2.46917486190795898 0.73721623420715332 1 0 -0
-1 2.78016948699951172 0.818585634231567383 1 0 -0
-1 1.97081875801086426 0.553794205188751221 1 0 -0
-1 1.82755005359649658 0.42442554235458374 1 0 -0
-1 0.92984694242477417 0.261983186006546021 1 0 -0
-1 0.339350998401641846 0.491066545248031616 1 0 -0
-1 2.05704164505004883 0.86199718713760376 1 0 -0
-1 1.23422658443450928 0.528098821640014648 1 0 -0
-1 2.16703319549560547 0.575178027153015137 1 0 -0
-1 3.66623306274414062 0.936416149139404297 1 0 -0
-1 1.37552213668823242 0.903848409652709961 1 0 -0
-1 1.26424574851989746 0.456747561693191528 1 0 -0
-1 1.25336837768554688 0.695300638675689697 1 0 -0
-1 1.41941583156585693 0.623312652111053467 1 0 -0
-1 1.326468825340271 0.311950981616973877 1 0 -0
-1 0.560834646224975586 0.770761191844940186 1 0 -0
-1 1.78975248336791992 0.738338887691497803 1 0 -0
-1 1.4785994291305542 0.628686070442199707 1 0 -0
-1 2.87257719039916992 0.736056089401245117 1 0 -0
-1 1.15867316722869873 0.538713514804840088 1 0 -0
-1 0.253411859273910522 0.554586470127105713 1 0 -0
-1 3.01205277442932129 0.988323450088500977 1 0 -0
-1 1.46275818347930908 0.331963509321212769 1 0 -0
-1 0.929397344589233398 0.323609709739685059 1 0 -0
-1 2.44767141342163086 0.695235669612884521 1 0 -0
-1 0.640568971633911133 0.645270109176635742 1 0 -0
-1 0.704607844352722168 0.963164269924163818 1 0 -0
-1 0.350874662399291992 0.256247907876968384 1 0 -0
-1 2.68763113021850586 0.748110175132751465 1 0 -0
-1 0.770209372043609619 0.868136882781982422 1 0 -0
-1 2.47118473052978516 0.866321206092834473 1 0 -0
-1 0.984877467155456543 0.706596493721008301 1 0 -0
-1 1.96736264228820801 0.821889340877532959 1 0 -0
-1 3.04413986206054688 0.917420566082000732 1 0 -0
-1 1.71257579326629639 0.829253554344177246 1 0 -0
-1 1.55204200744628906 0.640076220035552979 1 0 -0
-1 0.404428273439407349 0.887083709239959717 1 0 -0
-1 3.4127647876739502 0.988609075546264648 1 0 -0
-1 3.19883990287780762 0.964317500591278076 1 0 -0
-1 0.561551749706268311 0.513476192951202393 1 0 -0
-1 2.0644233226776123 0.754124701023101807 1 0 -0
-1 3.09981703758239746 0.956118226051330566 1 0 -0
-1 1.84572577476501465 0.861527383327484131 1 0 -0
-1 1.65187716484069824 0.989699661731719971 1 0 -0
-1 1.72756326198577881 0.652625918388366699 1 0 -0
-1 1.82604992389678955 0.700782358646392822 1 0 -0
-1 1.00891399383544922 0.968332469463348389 1 0 -0
-1 1.90411710739135742 0.896917879581451416 1 0 -0
-1 1.46137785911560059 0.549348175525665283 1 0 -0
-1 1.06206166744232178 0.827409625053405762 1 0 -0
-1 1.1986546516418457 0.324754208326339722 1 0 -0
-1 3.0037529468536377 0.940906882286071777 1 0 -0
-1 2.16685080528259277 0.911652624607086182 1 0 -0
-1 1.73574328422546387 0.497511357069015503 1 0 -0
-1 1.56566596031188965 0.937981367111206055 1 0 -0
-1 0.345253169536590576 0.695414304733276367 1 0 -0
-1 0.319792985916137695 0.0644088760018348694 1 0 -0
-1 2.39950704574584961 0.911925613880157471 1 0 -0
-1 3.23583674430847168 0.895848572254180908 1 0 -0
-1 1.25258171558380127 0.811246633529663086 1 0 -0
-1 0.779401600360870361 0.796451926231384277 1 0 -0
-1 0.813536942005157471 0.400868922472000122 1 0 -0
-1 2.01557707786560059 0.607412934303283691 1 0 -0
-1 1.76323676109313965 0.441649824380874634 1 0 -0
-1 2.64638304710388184 0.688415050506591797 1 0 -0
-1 3.04405927658081055 0.863605022430419922 1 0 -0
-1 1.5495002269744873 0.403817713260650635 1 0 -0
-1 2.34549641609191895 0.725080192089080811 1 0 -0
-1 2.28162908554077148 0.718582808971405029 1 0 -0
-1 1.57081520557403564 0.822057783603668213 1 0 -0
-1 1.49217474460601807 0.398032307624816895 1 0 -0
-1 2.50645065307617188 0.83323591947555542 1 0 -0
-1 0.433594197034835815 0.379840254783630371 1 0 -0
-1 3.43195581436157227 0.90584874153137207 1 0 -0
-1 1.9241786003112793 0.79266434907913208 1 0 -0
-1 0.967331945896148682 0.804691076278686523 1 0 -0
-1 0.558369159698486328 0.287004202604293823 1 0 -0
-1 0.336294203996658325 0.381762385368347168 1 0 -0
-1 1.32136762142181396 0.367063313722610474 1 0 -0
-1 1.64560472965240479 0.458761453628540039 1 0 -0
-1 1.31373155117034912 0.88188326358795166 1 0 -0
-1 2.59791254997253418 0.704388260841369629 1 0 -0
-1 0.655487060546875 0.926175534725189209 1 0 -0
-1 0.615434944629669189 0.202873453497886658 1 0 -0
-1 1.72009468078613281 0.394581377506256104 1 0 -0
-1 2.53428316116333008 0.661189854145050049 1 0 -0
-1 0.666111886501312256 0.836630046367645264 1 0 -0
-1 1.79325270652770996 0.877228200435638428 1 0 -0
-1 1.45358371734619141 0.422735154628753662 1 0 -0
-1 2.88194084167480469 0.85914987325668335 1 0 -0
-1 0.512039482593536377 0.454925298690795898 1 0 -0
-1 3.0389864444732666 0.776923239231109619 1 0 -0
-1 1.58760464191436768 0.521949112415313721 1 0 -0
-1 2.25358748435974121 0.551547586917877197 1 0 -0
-1 0.878483891487121582 0.919427931308746338 1 0 -0
-1 0.506147325038909912 0.939516723155975342 1 0 -0
-1 1.18902647495269775 0.500633895397186279 1 0 -0
-1 0.87406998872756958 0.568263113498687744 1 0 -0
-1 0.823135435581207275 0.255311697721481323 1 0 -0
-1 1.18096542358398438 0.8566131591796875 1 0 -0
-1 0.756611227989196777 0.567331373691558838 1 0 -0
-1 0.932798027992248535 0.677985966205596924 1 0 -0
-1 2.49937629699707031 0.77893143892288208 1 0 -0
-1 1.43671739101409912 0.701569497585296631 1 0 -0
-1 1.14058780670166016 0.362385451793670654 1 0 -0
-1 1.96087586879730225 0.673131883144378662 1 0 -0
-1 1.96717143058776855 0.949759125709533691 1 0 -0
-1 2.24895262718200684 0.911092579364776611 1 0 -0
-1 0.689192712306976318 0.301628679037094116 1 0 -0
-1 1.71554720401763916 0.443678677082061768 1 0 -0
-1 2.94884276390075684 0.954336583614349365 1 0 -0
-1 1.68894398212432861 0.490352809429168701 1 0 -0
-1 1.95291149616241455 0.884070396423339844 1 0 -0
-1 0.480009585618972778 0.838542580604553223 1 0 -0
-1 2.13601803779602051 0.981131196022033691 1 0 -0
-1 0.251470059156417847 0.0298819094896316528 1 0 -0
-1 1.59431672096252441 0.772062182426452637 1 0 -0
-1 2.20528221130371094 0.852965772151947021 1 0 -0
-1 1.15319561958312988 0.298068344593048096 1 0 -0
-1 0.805458545684814453 0.731059610843658447 1 0 -0
-1 0.400977522134780884 0.492016345262527466 1 0 -0
-1 3.08610773086547852 0.826707661151885986 1 0 -0
-1 2.03219199180603027 0.918068408966064453 1 0 -0
-1 1.40885043144226074 0.453741639852523804 1 0 -0
-1 3.09146976470947266 0.896935164928436279 1 0 -0
-1 3.95336341857910156 0.999442458152770996 1 0 -0
-1 2.11005854606628418 0.633984804153442383 1 0 -0
-1 0.847189128398895264 0.822485506534576416 1 0 -0
-1 0.361163437366485596 0.752467215061187744 1 0 -0
-1 0.594776511192321777 0.396451801061630249 1 0 -0
-1 2.27845096588134766 0.605722606182098389 1 0 -0
-1 2.01884627342224121 0.971872508525848389 1 0 -0
-1 0.867620885372161865 0.281809300184249878 1 0 -0
-1 1.11094832420349121 0.677483558654785156 1 0 -0
-1 1.37936496734619141 0.995484113693237305 1 0 -0
-1 2.3973233699798584 0.660341143608093262 1 0 -0
-1 0.461561858654022217 0.474187165498733521 1 0 -0
-1 1.84194588661193848 0.642844438552856445 1 0 -0
-1 0.979612052440643311 0.519164502620697021 1 0 -0
-1 0.294254601001739502 0.607207357883453369 1 0 -0
-1 0.567070245742797852 0.205954417586326599 1 0 -0
-1 1.86436140537261963 0.771721243858337402 1 0 -0
-1 0.853889346122741699 0.456928849220275879 1 0 -0
-1 1.80426502227783203 0.800159335136413574 1 0 -0
-1 0.547472000122070312 0.0886960551142692566 1 0 -0
-1 1.66258203983306885 0.620525121688842773 1 0 -0
-1 0.257671564817428589 0.303169012069702148 1 0 -0
-1 2.30054807662963867 0.9590262770652771 1 0 -0
-1 0.485661357641220093 0.111132204532623291 1 0 -0
-1 1.65793633460998535 0.557873547077178955 1 0 -0
-1 2.91545248031616211 0.992473244667053223 1 0 -0
-1 2.18880581855773926 0.793878316879272461 1 0 -0
-1 2.10334181785583496 0.851028323173522949 1 0 -0
-1 1.26337552070617676 0.618637919425964355 1 0 -0
-1 1.70805323123931885 0.600817322731018066 1 0 -0
-1 2.59738683700561523 0.645810782909393311 1 0 -0
-1 2.0399329662322998 0.681753933429718018 1 0 -0
-1 2.56260466575622559 0.733242034912109375 1 0 -0
-1 0.547952771186828613 0.669661581516265869 1 0 -0
-1 1.03885853290557861 0.431657612323760986 1 0 -0
-1 0.332709044218063354 0.544648706912994385 1 0 -0
-1 1.5329437255859375 0.730644881725311279 1 0 -0
-1 2.7394559383392334 0.714813828468322754 1 0 -0
-1 0.824235320091247559 0.622408509254455566 1 0 -0
-1 0.88017648458480835 0.871553599834442139 1 0 -0
-1 0.715120077133178711 0.35449981689453125 1 0 -0
-1 1.42268264293670654 0.887917399406433105 1 0 -0
-1 1.61570382118225098 0.853907346725463867 1 0 -0
-1 0.400674432516098022 0.311733782291412354 1 0 -0
-1 2.92274665832519531 0.729180753231048584 1 0 -0
-1 0.368585497140884399 0.0833649709820747375 1 0 -0
-1 0.500378787517547607 0.350458472967147827 1 0 -0
-1 2.1686103343963623 0.749759435653686523 1 0 -0
-1 0.94364619255065918 0.738196134567260742 1 0 -0
-1 2.61135363578796387 0.889984309673309326 1 0 -0
-1 0.796472907066345215 0.312397569417953491 1 0 -0
-1 1.13328456878662109 0.481770068407058716 1 0 -0
-1 1.17981052398681641 0.589386045932769775 1 0 -0
-1 0.832783699035644531 0.202744677662849426 1 0 -0
-1 1.06036531925201416 0.680826127529144287 1 0 -0
-1 1.51382410526275635 0.496382981538772583 1 0 -0
-1 1.65517354011535645 0.740298688411712646 1 0 -0
-1 2.53023767471313477 0.940593302249908447 1 0 -0
-1 2.65138769149780273 0.859913349151611328 1 0 -0
-1 0.446602225303649902 0.736055970191955566 1 0 -0
-1 1.65134787559509277 0.790517091751098633 1 0 -0
-1 1.35054934024810791 0.850750863552093506 1 0 -0
-1 0.704401791095733643 0.695567548274993896 1 0 -0
-1 1.91320240497589111 0.683275103569030762 1 0 -0
-1 0.411002904176712036 0.69247138500213623 1 0 -0
-1 2.67900776863098145 0.949242889881134033 1 0 -0
-1 2.2594454288482666 0.659312009811401367 1 0 -0
-1 0.98100203275680542 0.259676992893218994 1 0 -0
-1 1.90347552299499512 0.744590461254119873 1 0 -0
-1 3.81117534637451172 0.965572118759155273 1 0 -0
-1 0.502214729785919189 0.608659267425537109 1 0 -0
-1 1.106667160987854 0.808936119079589844 1 0 -0
-1 1.38710927963256836 0.75570976734161377 1 0 -0
-1 0.856508255004882812 0.995897293090820312 1 0 -0
-1 0.898715615272521973 0.524648785591125488 1 0 -0
-1 2.0726935863494873 0.572805106639862061 1 0 -0
-1 0.605344533920288086 0.455225855112075806 1 0 -0
-1 1.12995600700378418 0.906297147274017334 1 0 -0
-1 0.77267146110534668 0.925749480724334717 1 0 -0
-1 1.83157861232757568 0.983504891395568848 1 0 -0
-1 1.88849794864654541 0.84671783447265625 1 0 -0
-1 0.81186753511428833 0.550802648067474365 1 0 -0
-1 0.644323289394378662 0.774971544742584229 1 0 -0
-1 2.45097231864929199 0.599170386791229248 1 0 -0
-1 1.07265424728393555 0.9566231369972229 1 0 -0
-1 0.387930780649185181 0.134605854749679565 1 0 -0
-1 0.259204328060150146 0.789073705673217773 1 0 -0
-1 1.02744865417480469 0.299249321222305298 1 0 -0
-1 1.45683157444000244 0.960502862930297852 1 0 -0
-1 0.884467899799346924 0.402782559394836426 1 0 -0
-1 1.2336496114730835 0.28924250602722168 1 0 -0
-1 2.47892189025878906 0.649754166603088379 1 0 -0
-1 1.09165918827056885 0.443457186222076416 1 0 -0
-1 3.32575297355651855 0.995521485805511475 1 0 -0
-1 1.31043827533721924 0.796204328536987305 1 0 -0
-1 0.406000047922134399 0.426758438348770142 1 0 -0
-1 0.457004159688949585 0.618011355400085449 1 0 -0
-1 0.750049710273742676 0.314321070909500122 1 0 -0
-1 0.260288476943969727 0.143217206001281738 1 0 -0
-1 0.491417080163955688 0.66425323486328125 1 0 -0
-1 1.19396293163299561 0.812529146671295166 1 0 -0
-1 2.69646763801574707 0.899246335029602051 1 0 -0
-1 1.14133477210998535 0.954572439193725586 1 0 -0
-1 1.7008049488067627 0.969811558723449707 1 0 -0
-1 1.59618055820465088 0.449835896492004395 1 0 -0
-1 0.307645648717880249 0.331390082836151123 1 0 -0
-1 1.04377543926239014 0.533643484115600586 1 0 -0
-1 3.46129441261291504 0.949131369590759277 1 0 -0
-1 0.660002827644348145 0.237236171960830688 1 0 -0
-1 0.387759357690811157 0.186606824398040771 1 0 -0
-1 1.09033918380737305 0.75429004430770874 1 0 -0
-1 2.02205157279968262 0.536289691925048828 1 0 -0
-1 2.1008000373840332 0.903914690017700195 1 0 -0
-1 1.77631592750549316 0.524492800235748291 1 0 -0
-1 0.473419994115829468 0.31377333402633667 1 0 -0
-1 2.99744129180908203 0.886726856231689453 1 0 -0
-1 1.60211765766143799 0.570529520511627197 1 0 -0
-1 2.60876655578613281 0.942618370056152344 1 0 -0
-1 2.71848082542419434 0.853801310062408447 1 0 -0
-1 1.50548326969146729 0.773521125316619873 1 0 -0
-1 1.68622457981109619 0.894096910953521729 1 0 -0
-1 2.39319753646850586 0.709914863109588623 1 0 -0
-1 0.300412803888320923 0.7644805908203125 1 0 -0
-1 1.33153176307678223 0.687943875789642334 1 0 -0
-1 2.11518216133117676 0.769200384616851807 1 0 -0
-1 2.96825885772705078 0.780415952205657959 1 0 -0
-1 0.766571462154388428 0.991444289684295654 1 0 -0
-1 0.325548052787780762 0.824916601181030273 1 0 -0
-1 1.37767970561981201 0.520349204540252686 1 0 -0
-1 1.97723579406738281 0.499624073505401611 1 0 -0
-1 2.75531911849975586 0.889485478401184082 1 0 -0
-1 1.09528207778930664 0.327279716730117798 1 0 -0
-1 1.77508437633514404 0.679377079010009766 1 0 -0
-1 2.81885719299316406 0.89043891429901123 1 0 -0
-1 0.530861139297485352 0.394023001194000244 1 0 -0
-1 0.50779569149017334 0.764474213123321533 1 0 -0
-1 1.40710365772247314 0.941817641258239746 1 0 -0
-1 0.957139909267425537 0.213245540857315063 1 0 -0
-1 3.28672909736633301 0.844517290592193604 1 0 -0
-1 1.31230700016021729 0.589100241661071777 1 0 -0
-1 1.43885254859924316 0.815967082977294922 1 0 -0
-1 0.957985162734985352 0.58732682466506958 1 0 -0
-1 1.98595106601715088 0.778988957405090332 1 0 -0
-1 0.811733663082122803 0.948666632175445557 1 0 -0
-1 0.301092267036437988 0.172542735934257507 1 0 -0
-1 1.90498137474060059 0.46838495135307312 1 0 -0
-1 0.382864028215408325 0.374428510665893555 1 0 -0
-1 1.9714806079864502 0.728180944919586182 1 0 -0
-1 1.13431179523468018 0.244537875056266785 1 0 -0
-1 2.51356673240661621 0.89211571216583252 1 0 -0
-1 2.4223635196685791 0.818799436092376709 1 0 -0
-1 0.552049338817596436 0.5934714674949646 1 0 -0
-1 0.714822113513946533 0.621138215065002441 1 0 -0
-1 2.41703462600708008 0.756682515144348145 1 0 -0
-1 0.776696145534515381 0.695222139358520508 1 0 -0
-1 2.15872812271118164 0.855129599571228027 1 0 -0
-1 1.08180201053619385 0.907614946365356445 1 0 -0
-1 0.3560829758644104 0.875792026519775391 1 0 -0
-1 1.76863229274749756 0.625649213790893555 1 0 -0
-1 0.411922574043273926 0.947469890117645264 1 0 -0
-1 0.600118875503540039 0.723621666431427002 1 0 -0
-1 1.09978020191192627 0.859014809131622314 1 0 -0
-1 1.38139474391937256 0.685941696166992188 1 0 -0
-1 2.23796939849853516 0.967177629470825195 1 0 -0
-1 1.73268616199493408 0.722161293029785156 1 0 -0
-1 2.76255679130554199 0.991301655769348145 1 0 -0
-1 1.04995501041412354 0.780989110469818115 1 0 -0
-1 2.80700016021728516 0.780242383480072021 1 0 -0
-1 0.935050904750823975 0.938559114933013916 1 0 -0
-1 0.692788124084472656 0.125663787126541138 1 0 -0
-1 0.382357746362686157 0.55849003791809082 1 0 -0
-1 2.55778741836547852 0.617625832557678223 1 0 -0
-1 0.625400006771087646 0.315769195556640625 1 0 -0
-1 0.736331641674041748 0.186644777655601501 1 0 -0
-1 1.53936100006103516 0.568877696990966797 1 0 -0
-1 0.637711763381958008 0.12394348531961441 1 0 -0
-1 0.619627118110656738 0.547309398651123047 1 0 -0
-1 2.37065649032592773 0.592326641082763672 1 0 -0
-1 2.82082986831665039 0.727000534534454346 1 0 -0
-1 0.929591834545135498 0.484025090932846069 1 0 -0
-1 1.1028742790222168 0.541321814060211182 1 0 -0
-1 1.59997844696044922 0.621686995029449463 1 0 -0
-1 1.35461521148681641 0.409683674573898315 1 0 -0
-1 1.92744112014770508 0.635724127292633057 1 0 -0
-1 2.63811874389648438 0.782833218574523926 1 0 -0
-1 0.491737604141235352 0.513308525085449219 1 0 -0
-1 1.13871204853057861 0.43461194634437561 1 0 -0
-1 0.788656413555145264 0.481969952583312988 1 0 -0
-1 1.22918069362640381 0.876137852668762207 1 0 -0
-1 0.425824761390686035 0.0985600277781486511 1 0 -0
-1 1.84372353553771973 0.482009679079055786 1 0 -0
-1 0.471418797969818115 0.566536366939544678 1 0 -0
-1 2.50808405876159668 0.983821272850036621 1 0 -0
-1 0.890626907348632812 0.807667672634124756 1 0 -0
-1 3.33321332931518555 0.872639596462249756 1 0 -0
-1 0.784371793270111084 0.225165590643882751 1 0 -0
-1 1.74340641498565674 0.911561906337738037 1 0 -0
-1 0.452859491109848022 0.424194842576980591 1 0 -0
-1 2.12034130096435547 0.499412387609481812 1 0 -0
-1 1.05747175216674805 0.377974867820739746 1 0 -0
-1 3.36772656440734863 0.967162370681762695 1 0 -0
-1 0.433587402105331421 0.261405259370803833 1 0 -0
-1 1.12696146965026855 0.609850049018859863 1 0 -0
-1 2.57683420181274414 0.847041130065917969 1 0 -0
-1 0.254040122032165527 0.507253527641296387 1 0 -0
-1 2.05795907974243164 0.627928435802459717 1 0 -0
-1 2.08992147445678711 0.952992379665374756 1 0 -0
-1 0.670572340488433838 0.574324071407318115 1 0 -0
-1 0.770159482955932617 0.140620678663253784 1 0 -0
-1 0.665267467498779297 0.356063902378082275 1 0 -0
-1 1.40333747863769531 0.34148406982421875 1 0 -0
-1 3.30787229537963867 0.943256139755249023 1 0 -0
-1 1.70817267894744873 0.769768655300140381 1 0 -0
-1 1.60378396511077881 0.389433741569519043 1 0 -0
-1 1.51934123039245605 0.827620983123779297 1 0 -0
-1 1.47182786464691162 0.73611605167388916 1 0 -0
-1 1.47107887268066406 0.880975067615509033 1 0 -0
-1 0.363807410001754761 0.979535043239593506 1 0 -0
-1 0.30131375789642334 0.874704718589782715 1 0 -0
-1 1.3045727014541626 0.537044644355773926 1 0 -0
-1 1.75818908214569092 0.838442742824554443 1 0 -0
-1 1.86518609523773193 0.551281213760375977 1 0 -0
-1 2.44791197776794434 0.953019022941589355 1 0 -0
-1 2.9251251220703125 0.806132495403289795 1 0 -0
-1 2.2576446533203125 0.840308308601379395 1 0 -0
-1 0.632870733737945557 0.493234395980834961 1 0 -0
-1 0.654316186904907227 0.435793399810791016 1 0 -0
-1 1.26901721954345703 0.33972632884979248 1 0 -0
-1 0.494011580944061279 0.186579242348670959 1 0 -0
-1 2.17288327217102051 0.635293781757354736 1 0 -0
-1 1.02211999893188477 0.906534254550933838 1 0 -0
-1 0.304306894540786743 0.111490882933139801 1 0 -0
-1 1.71513998508453369 0.549768388271331787 1 0 -0
-1 2.11285495758056641 0.547447264194488525 1 0 -0
-1 2.87072610855102539 0.783922374248504639 1 0 -0
-1 1.29690062999725342 0.738597869873046875 1 0 -0
-1 2.34982180595397949 0.829192399978637695 1 0 -0
-1 0.301851958036422729 0.674293994903564453 1 0 -0
-1 1.50491869449615479 0.694388151168823242 1 0 -0
-1 1.89231634140014648 0.950719654560089111 1 0 -0
-1 1.28372323513031006 0.999969005584716797 1 0 -0
-1 1.38126933574676514 0.571954727172851562 1 0 -0
-1 0.276461482048034668 0.249107241630554199 1 0 -0
-1 0.306888192892074585 0.953130424022674561 1 0 -0
-1 0.609227597713470459 0.840087354183197021 1 0 -0
-1 2.72703909873962402 0.950014173984527588 1 0 -0
-1 3.23267507553100586 0.844975113868713379 1 0 -0
-1 0.749549686908721924 0.514647185802459717 1 0 -0
-1 0.549112856388092041 0.333446979522705078 1 0 -0
-1 3.50633120536804199 0.929330527782440186 1 0 -0
-1 2.69080805778503418 0.663041353225708008 1 0 -0
-1 2.25641345977783203 0.761263728141784668 1 0 -0
-1 0.931731820106506348 0.991182625293731689 1 0 -0
-1 0.418226569890975952 0.789859890937805176 1 0 -0
-1 1.68566989898681641 0.699914813041687012 1 0 -0
-1 2.49697279930114746 0.698312699794769287 1 0 -0
-1 1.00478744506835938 0.618195116519927979 1 0 -0
-1 2.81199955940246582 0.968818187713623047 1 0 -0
-1 0.680594742298126221 0.485049605369567871 1 0 -0
-1 0.727060496807098389 0.838465452194213867 1 0 -0
-1 1.62359750270843506 0.697295010089874268 1 0 -0
-1 0.529337108135223389 0.814119160175323486 1 0 -0
-1 1.32723522186279297 0.977001488208770752 1 0 -0
-1 0.520236849784851074 0.144821181893348694 1 0 -0
-1 0.353922426700592041 0.319644540548324585 1 0 -0
-1 2.74308276176452637 0.778219938278198242 1 0 -0
-1 3.14326214790344238 0.795518338680267334 1 0 -0
-1 2.35453510284423828 0.928084969520568848 1 0 -0
-1 0.538491606712341309 0.8891640305519104 1 0 -0
-1 3.17571854591369629 0.915790915489196777 1 0 -0
-1 1.28226339817047119 0.401931405067443848 1 0 -0
-1 2.19336462020874023 0.953031480312347412 1 0 -0
-1 1.03818678855895996 0.242713123559951782 1 0 -0
-1 1.01225388050079346 0.749350368976593018 1 0 -0
-1 3.16314363479614258 0.844779431819915771 1 0 -0
-1 1.4217449426651001 0.507256507873535156 1 0 -0
-1 1.63872241973876953 0.925540506839752197 1 0 -0
-1 1.75580132007598877 0.980813920497894287 1 0 -0
-1 2.33084964752197266 0.672146797180175781 1 0 -0
-1 0.833046019077301025 0.673759639263153076 1 0 -0
-1 0.70740509033203125 0.258570283651351929 1 0 -0
-1 0.879294991493225098 0.655361652374267578 1 0 -0
-1 0.702850282192230225 0.434926420450210571 1 0 -0
-1 1.80978977680206299 0.926319897174835205 1 0 -0
-1 0.880708873271942139 0.345559746026992798 1 0 -0
-1 0.375018060207366943 0.830463290214538574 1 0 -0
-1 1.32054543495178223 0.465800583362579346 1 0 -0
-1 2.94754719734191895 0.895245730876922607 1 0 -0
-1 1.24368524551391602 0.751194417476654053 1 0 -0
-1 0.752920567989349365 0.448619335889816284 1 0 -0
-1 2.5769813060760498 0.795755565166473389 1 0 -0
-1 3.37082004547119141 0.914306998252868652 1 0 -0
-1 2.12152409553527832 0.718136727809906006 1 0 -0
-1 0.820046544075012207 0.894852042198181152 1 0 -0
-1 0.383807867765426636 0.60439598560333252 1 0 -0
-1 0.990245521068572998 0.332863837480545044 1 0 -0
-1 0.577367722988128662 0.937517821788787842 1 0 -0
-1 0.354398250579833984 0.435179054737091064 1 0 -0
-1 1.0677342414855957 0.629453122615814209 1 0 -0
-1 1.074104905128479 0.491406887769699097 1 0 -0
-1 0.692483365535736084 0.789275825023651123 1 0 -0
-1 3.00499773025512695 0.743617773056030273 1 0 -0
-1 2.29843354225158691 0.793144285678863525 1 0 -0
-1 3.57433247566223145 0.9549560546875 1 0 -0
-1 0.503929615020751953 0.2583732008934021 1 0 -0
-1 2.39264869689941406 0.96036994457244873 1 0 -0
-1 0.746150434017181396 0.394639521837234497 1 0 -0
-1 1.19539535045623779 0.921294808387756348 1 0 -0
-1 0.950749754905700684 0.437945544719696045 1 0 -0
-1 1.35296392440795898 0.630625665187835693 1 0 -0
-1 3.74006438255310059 0.93642723560333252 1 0 -0
-1 1.00104796886444092 0.392070651054382324 1 0 -0
-1 1.55073428153991699 0.461545586585998535 1 0 -0
-1 1.17739284038543701 0.743448376655578613 1 0 -0
-1 2.2126309871673584 0.683344244956970215 1 0 -0
-1 0.853891491889953613 0.756466686725616455 1 0 -0
-1 1.52764689922332764 0.903939366340637207 1 0 -0
-1 1.76642584800720215 0.571613073348999023 1 0 -0
-1 1.19607150554656982 0.666323363780975342 1 0 -0
-1 1.06958317756652832 0.575576841831207275 1 0 -0
-1 3.54128909111022949 0.895315825939178467 1 0 -0
-1 1.21119785308837891 0.442827224731445312 1 0 -0
-1 3.63088154792785645 -0.390203416347503662 1 -0 0
-1 3.55174732208251953 -0.724545419216156006 1 -0 0
-1 3.51299428939819336 0.789970517158508301 1 -0 0
-1 3.39087939262390137 -0.63081812858581543 1 -0 0
-1 1.42614233493804932 0.158779621124267578 1 -0 0
-1 3.56665444374084473 -0.376814067363739014 1 -0 0
-1 3.03855609893798828 0.462513506412506104 1 -0 0
-1 2.56859517097473145 -0.261680543422698975 1 -0 0
-1 1.36483848094940186 -0.114763669669628143 1 -0 0
-1 1.23830008506774902 -0.0254087354987859726 1 -0 0
-1 2.92281270027160645 -0.275353223085403442 1 -0 0
-1 3.99845314025878906 0.976394772529602051 1 -0 0
-1 3.39090156555175781 -0.0658607035875320435 1 -0 0
-1 3.09545421600341797 -0.575356543064117432 1 -0 0
-1 3.9982154369354248 -0.531944036483764648 1 -0 0
-1 0.796571910381317139 0.0625748783349990845 1 -0 0
-1 3.31500554084777832 -0.480466634035110474 1 -0 0
-1 1.33533740043640137 -0.0323775708675384521 1 -0 0
-1 2.88050007820129395 -0.00823750812560319901 1 -0 0
-1 3.68873763084411621 -0.114568673074245453 1 -0 0
-1 1.65469217300415039 -0.336650460958480835 1 -0 0
-1 3.79625535011291504 0.138750031590461731 1 -0 0
-1 3.79797625541687012 -0.382058113813400269 1 -0 0
-1 2.23476886749267578 0.0801868289709091187 1 -0 0
-1 1.74115264415740967 0.136425897479057312 1 -0 0
-1 3.86068964004516602 0.901656389236450195 1 -0 0
-1 3.86333155632019043 -0.342926710844039917 1 -0 0
-1 3.88375020027160645 0.168072953820228577 1 -0 0
-1 3.83203935623168945 0.202156320214271545 1 -0 0
-1 1.09414935111999512 -0.0323049277067184448 1 -0 0
-1 1.25853705406188965 0.226657077670097351 1 -0 0
-1 2.09410190582275391 0.357732832431793213 1 -0 0
-1 1.91841387748718262 -0.335335433483123779 1 -0 0
-1 2.56374692916870117 0.159306839108467102 1 -0 0
-1 3.45785617828369141 -0.686724364757537842 1 -0 0
-1 3.82681012153625488 0.534607291221618652 1 -0 0
-1 2.66793227195739746 -0.104911662638187408 1 -0 0
-1 1.77648293972015381 -0.326583743095397949 1 -0 0
-1 3.41551065444946289 -0.316530674695968628 1 -0 0
-1 2.08184576034545898 0.106953516602516174 1 -0 0
-1 3.85904097557067871 0.48316606879234314 1 -0 0
-1 3.63063144683837891 0.361353546380996704 1 -0 0
-1 1.87063467502593994 -0.38184770941734314 1 -0 0
-1 1.79912340641021729 -0.115382395684719086 1 -0 0
-1 1.20552325248718262 -0.0689361914992332458 1 -0 0
-1 2.8408348560333252 0.490590274333953857 1 -0 0
-1 1.06249845027923584 -0.15991482138633728 1 -0 0
-1 3.55277848243713379 -0.119512826204299927 1 -0 0
-1 1.64982044696807861 -0.180240437388420105 1 -0 0
-1 3.44052481651306152 0.162553593516349792 1 -0 0
-1 3.57716512680053711 -0.79655832052230835 1 -0 0
-1 2.32229876518249512 0.273944109678268433 1 -0 0
-1 3.89653992652893066 -0.299120604991912842 1 -0 0
-1 3.1385352611541748 -0.675303936004638672 1 -0 0
-1 0.578287184238433838 0.0366029180586338043 1 -0 0
-1 3.60191726684570312 0.880609393119812012 1 -0 0
-1 1.63856112957000732 0.233018636703491211 1 -0 0
-1 2.52987861633300781 0.410469740629196167 1 -0 0
-1 3.70485877990722656 0.510203719139099121 1 -0 0
-1 3.85946106910705566 0.359955430030822754 1 -0 0
-1 1.01907587051391602 0.1381111741065979 1 -0 0
-1 3.48497200012207031 -0.621069967746734619 1 -0 0
-1 3.49090862274169922 -0.263118237257003784 1 -0 0
-1 1.90632569789886475 -0.0309934858232736588 1 -0 0
-1 1.96328175067901611 -0.304735094308853149 1 -0 0
-1 3.33740949630737305 0.0906497538089752197 1 -0 0
-1 3.2926487922668457 -0.376042485237121582 1 -0 0
-1 2.84113621711730957 -0.333989709615707397 1 -0 0
-1 3.60289645195007324 0.548966646194458008 1 -0 0
-1 3.12963175773620605 0.550359070301055908 1 -0 0
-1 1.7172393798828125 -0.105665579438209534 1 -0 0
-1 2.95243740081787109 0.103740744292736053 1 -0 0
-1 1.55293011665344238 -0.341776520013809204 1 -0 0
-1 1.07324504852294922 -0.0847617164254188538 1 -0 0
-1 3.32578802108764648 0.177175432443618774 1 -0 0
-1 2.99190402030944824 -0.277026325464248657 1 -0 0
-1 3.26207160949707031 -0.728348612785339355 1 -0 0
-1 2.27155518531799316 -0.384414970874786377 1 -0 0
-1 2.40105938911437988 -0.0226179864257574081 1 -0 0
-1 0.72518002986907959 0.00430064648389816284 1 -0 0
-1 3.65324211120605469 0.849331438541412354 1 -0 0
-1 2.48050904273986816 -0.0356552340090274811 1 -0 0
-1 3.29007863998413086 0.439539313316345215 1 -0 0
-1 2.91931438446044922 -0.417182892560958862 1 -0 0
-1 3.65076398849487305 -0.347440600395202637 1 -0 0
-1 2.6261899471282959 0.361688286066055298 1 -0 0
-1 3.19350743293762207 0.564154863357543945 1 -0 0
-1 3.11015009880065918 -0.226333051919937134 1 -0 0
-1 1.6226201057434082 -0.299118727445602417 1 -0 0
-1 3.91725254058837891 0.443374216556549072 1 -0 0
-1 3.56953883171081543 0.0656652078032493591 1 -0 0
-1 1.35450196266174316 0.102560892701148987 1 -0 0
-1 1.10818779468536377 0.174495518207550049 1 -0 0
-1 2.13057827949523926 -0.0255202502012252808 1 -0 0
-1 2.68264055252075195 0.371695399284362793 1 -0 0
-1 3.7845299243927002 -0.708942651748657227 1 -0 0
-1 1.79703569412231445 0.309477031230926514 1 -0 0
-1 3.04506754875183105 -0.511129498481750488 1 -0 0
-1 2.68741607666015625 -0.230538547039031982 1 -0 0
-1 3.88220524787902832 0.742213785648345947 1 -0 0
-1 3.25721526145935059 -0.343577057123184204 1 -0 0
-1 3.90907526016235352 -0.511222720146179199 1 -0 0
-1 2.38745236396789551 -0.458734631538391113 1 -0 0
-1 2.06065487861633301 0.165961563587188721 1 -0 0
-1 3.60031676292419434 -0.630415081977844238 1 -0 0
-1 3.83405375480651855 0.0611573196947574615 1 -0 0
-1 3.16556811332702637 -0.19350472092628479 1 -0 0
-1 3.38588571548461914 0.418432354927062988 1 -0 0
-1 3.38973522186279297 -0.369600951671600342 1 -0 0
-1 2.79456233978271484 -0.361336857080459595 1 -0 0
-1 3.76937437057495117 0.0497546195983886719 1 -0 0
-1 3.2868964672088623 0.0926819667220115662 1 -0 0
-1 2.5913231372833252 -0.220947504043579102 1 -0 0
-1 3.6023564338684082 0.101072289049625397 1 -0 0
-1 3.47127866744995117 -0.810229361057281494 1 -0 0
-1 2.64714789390563965 0.0367988497018814087 1 -0 0
-1 3.64433002471923828 -0.299217075109481812 1 -0 0
-1 2.80604124069213867 0.602922558784484863 1 -0 0
-1 3.20435905456542969 -0.705067336559295654 1 -0 0
-1 1.33154582977294922 0.261667251586914062 1 -0 0
-1 1.7741096019744873 -0.169066101312637329 1 -0 0
-1 2.05209660530090332 -0.0740911662578582764 1 -0 0
-1 3.07694268226623535 -0.733520805835723877 1 -0 0
-1 3.72780036926269531 0.141225129365921021 1 -0 0
-1 2.80874824523925781 -0.60674583911895752 1 -0 0
-1 3.80330824851989746 0.81857752799987793 1 -0 0
-1 2.22989439964294434 0.452553659677505493 1 -0 0
-1 1.54630076885223389 0.00033869757317006588 1 -0 0
-1 1.47108578681945801 0.274824738502502441 1 -0 0
-1 3.22232794761657715 -0.635239958763122559 1 -0 0
-1 1.51314461231231689 0.0589092075824737549 1 -0 0
-1 1.97280871868133545 0.374847412109375 1 -0 0
-1 2.77454090118408203 -0.0404916852712631226 1 -0 0
-1 2.04755759239196777 0.35999143123626709 1 -0 0
-1 3.21330094337463379 -0.179477393627166748 1 -0 0
-1 3.48799991607666016 -0.567396998405456543 1 -0 0
-1 1.5915229320526123 0.141362473368644714 1 -0 0
-1 3.71511459350585938 -0.822364091873168945 1 -0 0
-1 0.892919838428497314 -0.109990507364273071 1 -0 0
-1 0.929454326629638672 0.099117964506149292 1 -0 0
-1 1.33320152759552002 -0.249581173062324524 1 -0 0
-1 2.15075159072875977 0.39210742712020874 1 -0 0
-1 3.95038199424743652 0.592656612396240234 1 -0 0
-1 3.74564313888549805 -0.191479966044425964 1 -0 0
-1 0.865570187568664551 0.162593558430671692 1 -0 0
-1 2.64889860153198242 -0.0489875711500644684 1 -0 0
-1 1.89338910579681396 -0.0821743384003639221 1 -0 0
-1 3.93189501762390137 0.775526702404022217 1 -0 0
-1 3.34698987007141113 -0.703318178653717041 1 -0 0
-1 1.72741460800170898 -0.00599470688030123711 1 -0 0
-1 3.17689156532287598 0.0736729651689529419 1 -0 0
-1 2.0301356315612793 -0.358307778835296631 1 -0 0
-1 2.26053905487060547 0.40536084771156311 1 -0 0
-1 3.91172361373901367 0.380360692739486694 1 -0 0
-1 1.12694954872131348 -0.0708787515759468079 1 -0 0
-1 2.08165812492370605 0.465388834476470947 1 -0 0
-1 3.66591191291809082 0.554223060607910156 1 -0 0
-1 3.52726459503173828 0.178200572729110718 1 -0 0
-1 2.83151841163635254 0.676817476749420166 1 -0 0
-1 2.12816309928894043 -0.136281728744506836 1 -0 0
-1 3.53871870040893555 -0.536337316036224365 1 -0 0
-1 2.58870816230773926 -0.464572876691818237 1 -0 0
-1 1.5690082311630249 0.254172354936599731 1 -0 0
-1 2.17022490501403809 -0.359340131282806396 1 -0 0
-1 3.95584511756896973 -0.311989724636077881 1 -0 0
-1 1.32257533073425293 0.0488171577453613281 1 -0 0
-1 3.43221592903137207 -0.549009799957275391 1 -0 0
-1 3.84105753898620605 0.779110074043273926 1 -0 0
-1 3.65746188163757324 0.674859106540679932 1 -0 0
-1 2.03256654739379883 -0.179037541151046753 1 -0 0
-1 3.34622716903686523 0.00650083553045988083 1 -0 0
-1 2.08321595191955566 -0.265085101127624512 1 -0 0
-1 2.58401751518249512 -0.591768026351928711 1 -0 0
-1 2.98233842849731445 0.416234105825424194 1 -0 0
-1 0.960722565650939941 -0.0757591724395751953 1 -0 0
-1 3.01751255989074707 -0.236136361956596375 1 -0 0
-1 3.10989713668823242 0.655798137187957764 1 -0 0
-1 2.74941444396972656 -0.320314854383468628 1 -0 0
-1 0.495279222726821899 0.0160459708422422409 1 -0 0
-1 3.65219831466674805 -0.235977262258529663 1 -0 0
-1 3.97223329544067383 0.930060327053070068 1 -0 0
-1 1.95546424388885498 -0.378371477127075195 1 -0 0
-1 2.71810483932495117 0.18737541139125824 1 -0 0
-1 2.05642819404602051 -0.416035592555999756 1 -0 0
-1 2.96022176742553711 0.34974333643913269 1 -0 0
-1 3.24402546882629395 0.797559797763824463 1 -0 0
-1 2.91531562805175781 0.312028467655181885 1 -0 0
-1 2.30986571311950684 0.228044137358665466 1 -0 0
-1 2.31086587905883789 0.0452563613653182983 1 -0 0
-1 2.19628381729125977 -0.298507243394851685 1 -0 0
-1 2.91942977905273438 0.0312643684446811676 1 -0 0
-1 2.0297088623046875 0.445371717214584351 1 -0 0
-1 1.010947585105896 -0.199467524886131287 1 -0 0
-1 3.38441085815429688 -0.508037030696868896 1 -0 0
-1 3.47427535057067871 -0.115673929452896118 1 -0 0
-1 1.52907085418701172 -0.058531295508146286 1 -0 0
-1 3.35538983345031738 0.779813587665557861 1 -0 0
-1 3.30739188194274902 -0.111077398061752319 1 -0 0
-1 2.29015946388244629 -0.333574503660202026 1 -0 0
-1 2.07464194297790527 -0.121448777616024017 1 -0 0
-1 3.99991488456726074 0.176946133375167847 1 -0 0
-1 1.64328038692474365 0.311235666275024414 1 -0 0
-1 2.19748115539550781 0.172888606786727905 1 -0 0
-1 1.5947411060333252 -0.00371521618217229843 1 -0 0
-1 3.26656794548034668 -0.249877899885177612 1 -0 0
-1 3.99681830406188965 0.722922086715698242 1 -0 0
-1 3.44599580764770508 0.492996841669082642 1 -0 0
-1 3.83789634704589844 -0.772910535335540771 1 -0 0
-1 1.36842238903045654 0.0358662009239196777 1 -0 0
-1 2.76944208145141602 0.484646767377853394 1 -0 0
-1 2.42691135406494141 0.296081662178039551 1 -0 0
-1 2.26787686347961426 -0.274459511041641235 1 -0 0
-1 2.99785661697387695 0.0600034333765506744 1 -0 0
-1 2.57498478889465332 0.360587477684020996 1 -0 0
-1 2.44032382965087891 -0.30497857928276062 1 -0 0
-1 3.94960832595825195 -0.538158178329467773 1 -0 0
-1 3.01582860946655273 -0.552029073238372803 1 -0 0
-1 3.42438697814941406 0.820308923721313477 1 -0 0
-1 3.75136375427246094 -0.858455419540405273 1 -0 0
-1 3.8549504280090332 -0.390532612800598145 1 -0 0
-1 3.1865689754486084 -0.119198240339756012 1 -0 0
-1 2.03033852577209473 0.31251370906829834 1 -0 0
-1 3.2118532657623291 -0.399326980113983154 1 -0 0
-1 3.78662967681884766 -0.808102190494537354 1 -0 0
-1 3.39480900764465332 0.185822844505310059 1 -0 0
-1 3.62288403511047363 0.24785381555557251 1 -0 0
-1 2.18892502784729004 -0.0370565727353096008 1 -0 0
-1 3.74807620048522949 0.0914413034915924072 1 -0 0
-1 3.65403318405151367 0.761266708374023438 1 -0 0
-1 3.83337092399597168 -0.624895870685577393 1 -0 0
-1 2.02832221984863281 0.124253667891025543 1 -0 0
-1 3.06797957420349121 -0.298044323921203613 1 -0 0
-1 3.67820405960083008 -0.53500819206237793 1 -0 0
-1 2.08998918533325195 -0.175838619470596313 1 -0 0
-1 3.35090065002441406 0.577844619750976562 1 -0 0
-1 3.60477066040039062 -0.736191928386688232 1 -0 0
-1 1.52042889595031738 0.279601007699966431 1 -0 0
-1 2.39323520660400391 -0.317750513553619385 1 -0 0
-1 3.64687824249267578 -0.838843941688537598 1 -0 0
-1 3.18056583404541016 0.121865808963775635 1 -0 0
-1 1.79420030117034912 0.207755550742149353 1 -0 0
-1 3.92031645774841309 0.0817688703536987305 1 -0 0
-1 2.06111311912536621 -0.0155560914427042007 1 -0 0
-1 3.51011323928833008 0.0168557353317737579 1 -0 0
-1 3.11161565780639648 -0.625971317291259766 1 -0 0
-1 3.12859964370727539 0.11041577160358429 1 -0 0
-1 1.96749317646026611 0.447054445743560791 1 -0 0
-1 3.57119154930114746 0.351659893989562988 1 -0 0
-1 3.48885989189147949 -0.732223987579345703 1 -0 0
-1 3.64999699592590332 -0.719509124755859375 1 -0 0
-1 3.93821001052856445 0.182124584913253784 1 -0 0
-1 3.85583281517028809 -0.058724474161863327 1 -0 0
-1 3.94609260559082031 -0.467296212911605835 1 -0 0
-1 3.18764972686767578 0.662989437580108643 1 -0 0
-1 3.72241067886352539 0.0147104710340499878 1 -0 0
-1 2.82297563552856445 -0.252529740333557129 1 -0 0
-1 3.96932578086853027 0.487579017877578735 1 -0 0
-1 0.872910618782043457 -0.0563916973769664764 1 -0 0
-1 2.36416244506835938 -0.11981605738401413 1 -0 0
-1 3.31107711791992188 -0.428116679191589355 1 -0 0
-1 2.73879170417785645 0.0534522756934165955 1 -0 0
-1 3.15442204475402832 -0.552860736846923828 1 -0 0
-1 3.92136287689208984 0.685448348522186279 1 -0 0
-1 3.4377589225769043 0.391495048999786377 1 -0 0
-1 1.13553059101104736 -0.227897912263870239 1 -0 0
-1 1.58953857421875 0.197314590215682983 1 -0 0
-1 3.04645252227783203 0.365505754947662354 1 -0 0
-1 2.25773286819458008 -0.117918737232685089 1 -0 0
-1 2.70949077606201172 -0.035471256822347641 1 -0 0
-1 2.13182401657104492 -0.290435969829559326 1 -0 0
-1 0.522694587707519531 -0.0486419126391410828 1 -0 0
-1 0.445719152688980103 -0.00811765342950820923 1 -0 0
-1 2.09514808654785156 0.206603109836578369 1 -0 0
-1 3.3897252082824707 0.133835241198539734 1 -0 0
-1 3.81900787353515625 0.384484082460403442 1 -0 0
-1 2.46505212783813477 0.417035311460494995 1 -0 0
-1 3.18535757064819336 0.25541388988494873 1 -0 0
-1 3.57770109176635742 -0.433470338582992554 1 -0 0
-1 3.95506048202514648 0.365474909543991089 1 -0 0
-1 1.72918367385864258 -0.342870175838470459 1 -0 0
-1 3.67174100875854492 -0.172090053558349609 1 -0 0
-1 2.21911072731018066 -0.456879854202270508 1 -0 0
-1 3.39670443534851074 -0.777466058731079102 1 -0 0
-1 3.75514507293701172 0.486028701066970825 1 -0 0
-1 1.04651129245758057 -0.0327341444790363312 1 -0 0
-1 1.94948256015777588 0.216998279094696045 1 -0 0
-1 3.26453304290771484 0.24029754102230072 1 -0 0
-1 2.63793563842773438 -0.460753947496414185 1 -0 0
-1 3.08634066581726074 0.136288166046142578 1 -0 0
-1 1.00492012500762939 -0.0593718066811561584 1 -0 0
-1 3.84543418884277344 0.429686635732650757 1 -0 0
-1 3.38920331001281738 -0.199416667222976685 1 -0 0
-1 2.54696416854858398 -0.541764020919799805 1 -0 0
-1 2.42285990715026855 0.0569663792848587036 1 -0 0
-1 3.69827651977539062 0.206249609589576721 1 -0 0
-1 2.61217689514160156 -0.175489246845245361 1 -0 0
-1 2.55237340927124023 -0.397716313600540161 1 -0 0
-1 2.33792424201965332 -0.475918173789978027 1 -0 0
-1 2.52150678634643555 0.10397116094827652 1 -0 0
-1 1.47043955326080322 0.222661003470420837 1 -0 0
-1 2.48181748390197754 0.25387158989906311 1 -0 0
-1 3.66307234764099121 0.607934236526489258 1 -0 0
-1 3.9350128173828125 -0.901801884174346924 1 -0 0
-1 1.27083373069763184 0.0722995325922966003 1 -0 0
-1 3.70659804344177246 -0.48218199610710144 1 -0 0
-1 0.672067701816558838 0.0171844158321619034 1 -0 0
-1 0.443698406219482422 0.0419555865228176117 1 -0 0
-1 2.48197269439697266 -0.550485014915466309 1 -0 0
-1 3.00438380241394043 -0.409855186939239502 1 -0 0
-1 2.86298704147338867 0.22436957061290741 1 -0 0
-1 3.05766987800598145 -0.390761464834213257 1 -0 0
-1 2.91181278228759766 -0.0661047697067260742 1 -0 0
-1 1.77388298511505127 0.101530022919178009 1 -0 0
-1 3.59684991836547852 -0.859982132911682129 1 -0 0
-1 3.54270625114440918 -0.485763907432556152 1 -0 0
-1 3.58362531661987305 -0.251661777496337891 1 -0 0
-1 3.86710453033447266 -0.116939939558506012 1 -0 0
-1 1.90420174598693848 -0.426487594842910767 1 -0 0
-1 2.11182928085327148 0.15100117027759552 1 -0 0
-1 3.68111777305603027 0.432454526424407959 1 -0 0
-1 2.82606196403503418 0.315161436796188354 1 -0 0
-1 3.76759672164916992 0.719867825508117676 1 -0 0
-1 2.97909998893737793 -0.370194286108016968 1 -0 0
-1 2.78157377243041992 0.348217099905014038 1 -0 0
-1 3.3388822078704834 -0.054087076336145401 1 -0 0
-1 3.02135586738586426 0.00353315705433487892 1 -0 0
-1 3.49431324005126953 0.693360865116119385 1 -0 0
-1 1.12110185623168945 0.0203046891838312149 1 -0 0
-1 3.50849556922912598 0.589719414710998535 1 -0 0
-1 3.21304464340209961 0.210696503520011902 1 -0 0
-1 2.68311667442321777 -0.433232516050338745 1 -0 0
-1 1.84576225280761719 0.241160973906517029 1 -0 0
-1 2.68282914161682129 0.424558103084564209 1 -0 0
-1 3.47015595436096191 -0.314278095960617065 1 -0 0
